115.5 40.008331298828125 92.66471862792969
115.5 40.008331298828125 93.53074645996094
115.5 40.008331298828125 94.39677429199219
115.5 40.008331298828125 95.2627944946289
115.5 40.008331298828125 96.12882232666016
115.5 40.008331298828125 96.9948501586914
115.5 40.008331298828125 97.86087036132812
115.5 40.008331298828125 98.72689819335938
115.5 40.008331298828125 99.59292602539062
115.5 40.008331298828125 100.45894622802734
115.5 40.008331298828125 101.3249740600586
115.5 40.008331298828125 102.19100189208984
115.5 40.008331298828125 103.05702209472656
115.5 40.008331298828125 103.92304992675781
115.5 40.008331298828125 104.78907775878906
115.5 40.008331298828125 105.65510559082031
115.5 40.008331298828125 106.52112579345703
115.5 40.008331298828125 107.38715362548828
115.5 40.008331298828125 108.253173828125
115.5 40.008331298828125 109.11920166015625
115.5 40.008331298828125 109.9852294921875
115.5 40.8248291015625 91.79869079589844
115.5 40.8248291015625 92.66471862792969
115.5 40.8248291015625 93.53074645996094
115.5 40.8248291015625 94.39677429199219
115.5 40.8248291015625 95.2627944946289
115.5 40.8248291015625 96.12882232666016
115.5 40.8248291015625 96.9948501586914
115.5 40.8248291015625 97.86087036132812
115.5 40.8248291015625 98.72689819335938
115.5 40.8248291015625 99.59292602539062
115.5 40.8248291015625 100.45894622802734
115.5 40.8248291015625 101.3249740600586
115.5 40.8248291015625 102.19100189208984
115.5 40.8248291015625 103.05702209472656
115.5 40.8248291015625 103.92304992675781
115.5 40.8248291015625 104.78907775878906
115.5 40.8248291015625 105.65510559082031
115.5 40.8248291015625 106.52112579345703
115.5 40.8248291015625 107.38715362548828
115.5 40.8248291015625 108.253173828125
115.5 40.8248291015625 109.11920166015625
115.5 40.8248291015625 109.9852294921875
115.5 41.641326904296875 91.79869079589844
115.5 41.641326904296875 92.66471862792969
115.5 41.641326904296875 93.53074645996094
115.5 41.641326904296875 94.39677429199219
115.5 41.641326904296875 95.2627944946289
115.5 41.641326904296875 96.12882232666016
115.5 41.641326904296875 96.9948501586914
115.5 41.641326904296875 97.86087036132812
115.5 41.641326904296875 98.72689819335938
115.5 41.641326904296875 99.59292602539062
115.5 41.641326904296875 100.45894622802734
115.5 41.641326904296875 101.3249740600586
115.5 41.641326904296875 102.19100189208984
115.5 41.641326904296875 103.05702209472656
115.5 41.641326904296875 103.92304992675781
115.5 41.641326904296875 104.78907775878906
115.5 41.641326904296875 105.65510559082031
115.5 41.641326904296875 106.52112579345703
115.5 41.641326904296875 107.38715362548828
115.5 41.641326904296875 108.253173828125
115.5 41.641326904296875 109.11920166015625
115.5 41.641326904296875 109.9852294921875
115.5 42.457820892333984 91.79869079589844
115.5 42.457820892333984 92.66471862792969
115.5 42.457820892333984 93.53074645996094
115.5 42.457820892333984 94.39677429199219
115.5 42.457820892333984 95.2627944946289
115.5 42.457820892333984 96.12882232666016
115.5 42.457820892333984 96.9948501586914
115.5 42.457820892333984 97.86087036132812
115.5 42.457820892333984 98.72689819335938
115.5 42.457820892333984 99.59292602539062
115.5 42.457820892333984 100.45894622802734
115.5 42.457820892333984 101.3249740600586
115.5 42.457820892333984 102.19100189208984
115.5 42.457820892333984 103.05702209472656
115.5 42.457820892333984 103.92304992675781
115.5 42.457820892333984 104.78907775878906
115.5 42.457820892333984 105.65510559082031
115.5 42.457820892333984 106.52112579345703
115.5 42.457820892333984 107.38715362548828
115.5 42.457820892333984 108.253173828125
115.5 42.457820892333984 109.11920166015625
115.5 42.457820892333984 109.9852294921875
115.5 43.27431869506836 91.79869079589844
115.5 43.27431869506836 92.66471862792969
115.5 43.27431869506836 93.53074645996094
115.5 43.27431869506836 94.39677429199219
115.5 43.27431869506836 95.2627944946289
115.5 43.27431869506836 96.12882232666016
115.5 43.27431869506836 96.9948501586914
115.5 43.27431869506836 97.86087036132812
115.5 43.27431869506836 98.72689819335938
115.5 43.27431869506836 99.59292602539062
115.5 43.27431869506836 100.45894622802734
115.5 43.27431869506836 101.3249740600586
115.5 43.27431869506836 102.19100189208984
115.5 43.27431869506836 103.05702209472656
115.5 43.27431869506836 103.92304992675781
115.5 43.27431869506836 104.78907775878906
115.5 43.27431869506836 105.65510559082031
115.5 43.27431869506836 106.52112579345703
115.5 43.27431869506836 107.38715362548828
115.5 43.27431869506836 108.253173828125
115.5 43.27431869506836 109.11920166015625
115.5 43.27431869506836 109.9852294921875
115.5 44.09081268310547 92.66471862792969
115.5 44.09081268310547 93.53074645996094
115.5 44.09081268310547 94.39677429199219
115.5 44.09081268310547 95.2627944946289
115.5 44.09081268310547 96.12882232666016
115.5 44.09081268310547 96.9948501586914
115.5 44.09081268310547 97.86087036132812
115.5 44.09081268310547 98.72689819335938
115.5 44.09081268310547 99.59292602539062
115.5 44.09081268310547 100.45894622802734
115.5 44.09081268310547 101.3249740600586
115.5 44.09081268310547 102.19100189208984
115.5 44.09081268310547 103.05702209472656
115.5 44.09081268310547 103.92304992675781
115.5 44.09081268310547 104.78907775878906
115.5 44.09081268310547 105.65510559082031
115.5 44.09081268310547 106.52112579345703
115.5 44.09081268310547 107.38715362548828
115.5 44.09081268310547 108.253173828125
115.5 44.09081268310547 109.11920166015625
115.5 44.907310485839844 92.66471862792969
115.5 44.907310485839844 93.53074645996094
115.5 44.907310485839844 94.39677429199219
115.5 44.907310485839844 95.2627944946289
115.5 44.907310485839844 96.12882232666016
115.5 44.907310485839844 96.9948501586914
115.5 44.907310485839844 97.86087036132812
115.5 44.907310485839844 98.72689819335938
115.5 44.907310485839844 99.59292602539062
115.5 44.907310485839844 100.45894622802734
115.5 44.907310485839844 101.3249740600586
115.5 44.907310485839844 102.19100189208984
115.5 44.907310485839844 103.05702209472656
115.5 44.907310485839844 103.92304992675781
115.5 44.907310485839844 104.78907775878906
115.5 44.907310485839844 105.65510559082031
115.5 44.907310485839844 106.52112579345703
115.5 44.907310485839844 107.38715362548828
115.5 44.907310485839844 108.253173828125
115.5 45.72380828857422 92.66471862792969
115.5 45.72380828857422 93.53074645996094
115.5 45.72380828857422 94.39677429199219
115.5 45.72380828857422 95.2627944946289
115.5 45.72380828857422 96.12882232666016
115.5 45.72380828857422 96.9948501586914
115.5 45.72380828857422 97.86087036132812
115.5 45.72380828857422 98.72689819335938
115.5 45.72380828857422 99.59292602539062
115.5 45.72380828857422 100.45894622802734
115.5 45.72380828857422 101.3249740600586
115.5 45.72380828857422 102.19100189208984
115.5 45.72380828857422 103.05702209472656
115.5 45.72380828857422 103.92304992675781
115.5 45.72380828857422 104.78907775878906
115.5 45.72380828857422 105.65510559082031
115.5 45.72380828857422 106.52112579345703
115.5 45.72380828857422 107.38715362548828
115.5 46.540306091308594 93.53074645996094
115.5 46.540306091308594 94.39677429199219
115.5 46.540306091308594 95.2627944946289
115.5 46.540306091308594 96.12882232666016
115.5 46.540306091308594 96.9948501586914
115.5 46.540306091308594 97.86087036132812
115.5 46.540306091308594 98.72689819335938
115.5 46.540306091308594 99.59292602539062
115.5 46.540306091308594 100.45894622802734
115.5 46.540306091308594 101.3249740600586
115.5 46.540306091308594 102.19100189208984
115.5 46.540306091308594 103.05702209472656
115.5 46.540306091308594 103.92304992675781
115.5 46.540306091308594 104.78907775878906
115.5 46.540306091308594 105.65510559082031
115.5 46.540306091308594 106.52112579345703
115.5 47.3568000793457 94.39677429199219
115.5 47.3568000793457 95.2627944946289
115.5 47.3568000793457 96.12882232666016
115.5 47.3568000793457 96.9948501586914
115.5 47.3568000793457 97.86087036132812
115.5 47.3568000793457 98.72689819335938
115.5 47.3568000793457 99.59292602539062
115.5 47.3568000793457 100.45894622802734
115.5 47.3568000793457 101.3249740600586
115.5 47.3568000793457 102.19100189208984
115.5 47.3568000793457 103.05702209472656
115.5 47.3568000793457 103.92304992675781
115.5 47.3568000793457 104.78907775878906
115.5 48.17329788208008 95.2627944946289
115.5 48.17329788208008 96.12882232666016
115.5 48.17329788208008 96.9948501586914
115.5 48.17329788208008 97.86087036132812
115.5 48.17329788208008 98.72689819335938
115.5 48.17329788208008 99.59292602539062
115.5 48.17329788208008 100.45894622802734
115.5 48.17329788208008 101.3249740600586
115.5 48.17329788208008 102.19100189208984
115.5 48.98979187011719 96.9948501586914
115.5 48.98979187011719 97.86087036132812
115.5 48.98979187011719 98.72689819335938
115.5 48.98979187011719 99.59292602539062
115.5 48.98979187011719 100.45894622802734
116.0 30.210372924804688 96.12882232666016
116.0 30.210372924804688 96.9948501586914
116.0 30.210372924804688 97.86087036132812
116.0 30.210372924804688 98.72689819335938
116.0 30.210372924804688 99.59292602539062
116.0 30.210372924804688 100.45894622802734
116.0 31.026870727539062 95.2627944946289
116.0 31.026870727539062 96.12882232666016
116.0 31.026870727539062 96.9948501586914
116.0 31.026870727539062 97.86087036132812
116.0 31.026870727539062 98.72689819335938
116.0 31.026870727539062 99.59292602539062
116.0 31.026870727539062 100.45894622802734
116.0 31.026870727539062 101.3249740600586
116.0 31.026870727539062 102.19100189208984
116.0 31.843366622924805 94.39677429199219
116.0 31.843366622924805 95.2627944946289
116.0 31.843366622924805 96.12882232666016
116.0 31.843366622924805 96.9948501586914
116.0 31.843366622924805 97.86087036132812
116.0 31.843366622924805 98.72689819335938
116.0 31.843366622924805 99.59292602539062
116.0 31.843366622924805 100.45894622802734
116.0 31.843366622924805 101.3249740600586
116.0 31.843366622924805 102.19100189208984
116.0 31.843366622924805 103.05702209472656
116.0 31.843366622924805 103.92304992675781
116.0 32.65986251831055 93.53074645996094
116.0 32.65986251831055 94.39677429199219
116.0 32.65986251831055 95.2627944946289
116.0 32.65986251831055 96.12882232666016
116.0 32.65986251831055 96.9948501586914
116.0 32.65986251831055 97.86087036132812
116.0 32.65986251831055 98.72689819335938
116.0 32.65986251831055 99.59292602539062
116.0 32.65986251831055 100.45894622802734
116.0 32.65986251831055 101.3249740600586
116.0 32.65986251831055 102.19100189208984
116.0 32.65986251831055 103.05702209472656
116.0 32.65986251831055 103.92304992675781
116.0 33.47636032104492 90.93267059326172
116.0 33.47636032104492 91.79869079589844
116.0 33.47636032104492 92.66471862792969
116.0 33.47636032104492 93.53074645996094
116.0 33.47636032104492 94.39677429199219
116.0 33.47636032104492 95.2627944946289
116.0 33.47636032104492 96.12882232666016
116.0 33.47636032104492 96.9948501586914
116.0 33.47636032104492 97.86087036132812
116.0 33.47636032104492 98.72689819335938
116.0 33.47636032104492 99.59292602539062
116.0 33.47636032104492 100.45894622802734
116.0 33.47636032104492 101.3249740600586
116.0 33.47636032104492 102.19100189208984
116.0 33.47636032104492 103.05702209472656
116.0 33.47636032104492 103.92304992675781
116.0 33.47636032104492 104.78907775878906
116.0 34.29285430908203 90.06664276123047
116.0 34.29285430908203 90.93267059326172
116.0 34.29285430908203 91.79869079589844
116.0 34.29285430908203 92.66471862792969
116.0 34.29285430908203 93.53074645996094
116.0 34.29285430908203 94.39677429199219
116.0 34.29285430908203 95.2627944946289
116.0 34.29285430908203 96.12882232666016
116.0 34.29285430908203 96.9948501586914
116.0 34.29285430908203 97.86087036132812
116.0 34.29285430908203 98.72689819335938
116.0 34.29285430908203 99.59292602539062
116.0 34.29285430908203 100.45894622802734
116.0 34.29285430908203 101.3249740600586
116.0 34.29285430908203 102.19100189208984
116.0 34.29285430908203 103.05702209472656
116.0 34.29285430908203 103.92304992675781
116.0 34.29285430908203 104.78907775878906
116.0 34.29285430908203 105.65510559082031
116.0 35.109352111816406 90.06664276123047
116.0 35.109352111816406 90.93267059326172
116.0 35.109352111816406 91.79869079589844
116.0 35.109352111816406 92.66471862792969
116.0 35.109352111816406 93.53074645996094
116.0 35.109352111816406 94.39677429199219
116.0 35.109352111816406 95.2627944946289
116.0 35.109352111816406 96.12882232666016
116.0 35.109352111816406 96.9948501586914
116.0 35.109352111816406 97.86087036132812
116.0 35.109352111816406 98.72689819335938
116.0 35.109352111816406 99.59292602539062
116.0 35.109352111816406 100.45894622802734
116.0 35.109352111816406 101.3249740600586
116.0 35.109352111816406 102.19100189208984
116.0 35.109352111816406 103.05702209472656
116.0 35.109352111816406 103.92304992675781
116.0 35.109352111816406 104.78907775878906
116.0 35.109352111816406 105.65510559082031
116.0 35.109352111816406 106.52112579345703
116.0 35.92584991455078 90.93267059326172
116.0 35.92584991455078 91.79869079589844
116.0 35.92584991455078 92.66471862792969
116.0 35.92584991455078 93.53074645996094
116.0 35.92584991455078 94.39677429199219
116.0 35.92584991455078 95.2627944946289
116.0 35.92584991455078 96.12882232666016
116.0 35.92584991455078 96.9948501586914
116.0 35.92584991455078 97.86087036132812
116.0 35.92584991455078 98.72689819335938
116.0 35.92584991455078 99.59292602539062
116.0 35.92584991455078 100.45894622802734
116.0 35.92584991455078 101.3249740600586
116.0 35.92584991455078 102.19100189208984
116.0 35.92584991455078 103.05702209472656
116.0 35.92584991455078 103.92304992675781
116.0 35.92584991455078 104.78907775878906
116.0 35.92584991455078 105.65510559082031
116.0 35.92584991455078 106.52112579345703
116.0 35.92584991455078 107.38715362548828
116.0 35.92584991455078 108.253173828125
116.0 36.742347717285156 90.93267059326172
116.0 36.742347717285156 91.79869079589844
116.0 36.742347717285156 92.66471862792969
116.0 36.742347717285156 93.53074645996094
116.0 36.742347717285156 94.39677429199219
116.0 36.742347717285156 95.2627944946289
116.0 36.742347717285156 96.12882232666016
116.0 36.742347717285156 96.9948501586914
116.0 36.742347717285156 97.86087036132812
116.0 36.742347717285156 98.72689819335938
116.0 36.742347717285156 99.59292602539062
116.0 36.742347717285156 100.45894622802734
116.0 36.742347717285156 101.3249740600586
116.0 36.742347717285156 102.19100189208984
116.0 36.742347717285156 103.05702209472656
116.0 36.742347717285156 103.92304992675781
116.0 36.742347717285156 104.78907775878906
116.0 36.742347717285156 105.65510559082031
116.0 36.742347717285156 106.52112579345703
116.0 36.742347717285156 107.38715362548828
116.0 36.742347717285156 108.253173828125
116.0 36.742347717285156 109.11920166015625
116.0 36.742347717285156 109.9852294921875
116.0 37.558841705322266 90.93267059326172
116.0 37.558841705322266 91.79869079589844
116.0 37.558841705322266 92.66471862792969
116.0 37.558841705322266 93.53074645996094
116.0 37.558841705322266 94.39677429199219
116.0 37.558841705322266 95.2627944946289
116.0 37.558841705322266 96.12882232666016
116.0 37.558841705322266 96.9948501586914
116.0 37.558841705322266 97.86087036132812
116.0 37.558841705322266 98.72689819335938
116.0 37.558841705322266 99.59292602539062
116.0 37.558841705322266 100.45894622802734
116.0 37.558841705322266 101.3249740600586
116.0 37.558841705322266 102.19100189208984
116.0 37.558841705322266 103.05702209472656
116.0 37.558841705322266 103.92304992675781
116.0 37.558841705322266 104.78907775878906
116.0 37.558841705322266 105.65510559082031
116.0 37.558841705322266 106.52112579345703
116.0 37.558841705322266 107.38715362548828
116.0 37.558841705322266 108.253173828125
116.0 37.558841705322266 109.11920166015625
116.0 37.558841705322266 109.9852294921875
116.0 38.37533950805664 91.79869079589844
116.0 38.37533950805664 92.66471862792969
116.0 38.37533950805664 93.53074645996094
116.0 38.37533950805664 94.39677429199219
116.0 38.37533950805664 95.2627944946289
116.0 38.37533950805664 96.12882232666016
116.0 38.37533950805664 96.9948501586914
116.0 38.37533950805664 97.86087036132812
116.0 38.37533950805664 98.72689819335938
116.0 38.37533950805664 99.59292602539062
116.0 38.37533950805664 100.45894622802734
116.0 38.37533950805664 101.3249740600586
116.0 38.37533950805664 102.19100189208984
116.0 38.37533950805664 103.05702209472656
116.0 38.37533950805664 103.92304992675781
116.0 38.37533950805664 104.78907775878906
116.0 38.37533950805664 105.65510559082031
116.0 38.37533950805664 106.52112579345703
116.0 38.37533950805664 107.38715362548828
116.0 38.37533950805664 108.253173828125
116.0 38.37533950805664 109.11920166015625
116.0 38.37533950805664 109.9852294921875
116.0 38.37533950805664 110.85125732421875
116.0 39.19183349609375 91.79869079589844
116.0 39.19183349609375 92.66471862792969
116.0 39.19183349609375 93.53074645996094
116.0 39.19183349609375 94.39677429199219
116.0 39.19183349609375 95.2627944946289
116.0 39.19183349609375 96.12882232666016
116.0 39.19183349609375 96.9948501586914
116.0 39.19183349609375 97.86087036132812
116.0 39.19183349609375 98.72689819335938
116.0 39.19183349609375 99.59292602539062
116.0 39.19183349609375 100.45894622802734
116.0 39.19183349609375 101.3249740600586
116.0 39.19183349609375 102.19100189208984
116.0 39.19183349609375 103.05702209472656
116.0 39.19183349609375 103.92304992675781
116.0 39.19183349609375 104.78907775878906
116.0 39.19183349609375 105.65510559082031
116.0 39.19183349609375 106.52112579345703
116.0 39.19183349609375 107.38715362548828
116.0 39.19183349609375 108.253173828125
116.0 39.19183349609375 109.11920166015625
116.0 39.19183349609375 109.9852294921875
116.0 39.19183349609375 110.85125732421875
116.0 40.008331298828125 91.79869079589844
116.0 40.008331298828125 92.66471862792969
116.0 40.008331298828125 93.53074645996094
116.0 40.008331298828125 94.39677429199219
116.0 40.008331298828125 95.2627944946289
116.0 40.008331298828125 96.12882232666016
116.0 40.008331298828125 96.9948501586914
116.0 40.008331298828125 97.86087036132812
116.0 40.008331298828125 98.72689819335938
116.0 40.008331298828125 99.59292602539062
116.0 40.008331298828125 100.45894622802734
116.0 40.008331298828125 101.3249740600586
116.0 40.008331298828125 102.19100189208984
116.0 40.008331298828125 103.05702209472656
116.0 40.008331298828125 103.92304992675781
116.0 40.008331298828125 104.78907775878906
116.0 40.008331298828125 105.65510559082031
116.0 40.008331298828125 106.52112579345703
116.0 40.008331298828125 107.38715362548828
116.0 40.008331298828125 108.253173828125
116.0 40.008331298828125 109.11920166015625
116.0 40.008331298828125 109.9852294921875
116.0 40.008331298828125 110.85125732421875
116.0 40.8248291015625 91.79869079589844
116.0 40.8248291015625 92.66471862792969
116.0 40.8248291015625 93.53074645996094
116.0 40.8248291015625 94.39677429199219
116.0 40.8248291015625 95.2627944946289
116.0 40.8248291015625 96.12882232666016
116.0 40.8248291015625 96.9948501586914
116.0 40.8248291015625 97.86087036132812
116.0 40.8248291015625 98.72689819335938
116.0 40.8248291015625 99.59292602539062
116.0 40.8248291015625 100.45894622802734
116.0 40.8248291015625 101.3249740600586
116.0 40.8248291015625 102.19100189208984
116.0 40.8248291015625 103.05702209472656
116.0 40.8248291015625 103.92304992675781
116.0 40.8248291015625 104.78907775878906
116.0 40.8248291015625 105.65510559082031
116.0 40.8248291015625 106.52112579345703
116.0 40.8248291015625 107.38715362548828
116.0 40.8248291015625 108.253173828125
116.0 40.8248291015625 109.11920166015625
116.0 40.8248291015625 109.9852294921875
116.0 40.8248291015625 110.85125732421875
116.0 41.641326904296875 91.79869079589844
116.0 41.641326904296875 92.66471862792969
116.0 41.641326904296875 93.53074645996094
116.0 41.641326904296875 94.39677429199219
116.0 41.641326904296875 95.2627944946289
116.0 41.641326904296875 96.12882232666016
116.0 41.641326904296875 96.9948501586914
116.0 41.641326904296875 97.86087036132812
116.0 41.641326904296875 98.72689819335938
116.0 41.641326904296875 99.59292602539062
116.0 41.641326904296875 100.45894622802734
116.0 41.641326904296875 101.3249740600586
116.0 41.641326904296875 102.19100189208984
116.0 41.641326904296875 103.05702209472656
116.0 41.641326904296875 103.92304992675781
116.0 41.641326904296875 104.78907775878906
116.0 41.641326904296875 105.65510559082031
116.0 41.641326904296875 106.52112579345703
116.0 41.641326904296875 107.38715362548828
116.0 41.641326904296875 108.253173828125
116.0 41.641326904296875 109.11920166015625
116.0 41.641326904296875 109.9852294921875
116.0 41.641326904296875 110.85125732421875
116.0 42.457820892333984 91.79869079589844
116.0 42.457820892333984 92.66471862792969
116.0 42.457820892333984 93.53074645996094
116.0 42.457820892333984 94.39677429199219
116.0 42.457820892333984 95.2627944946289
116.0 42.457820892333984 96.12882232666016
116.0 42.457820892333984 96.9948501586914
116.0 42.457820892333984 97.86087036132812
116.0 42.457820892333984 98.72689819335938
116.0 42.457820892333984 99.59292602539062
116.0 42.457820892333984 100.45894622802734
116.0 42.457820892333984 101.3249740600586
116.0 42.457820892333984 102.19100189208984
116.0 42.457820892333984 103.05702209472656
116.0 42.457820892333984 103.92304992675781
116.0 42.457820892333984 104.78907775878906
116.0 42.457820892333984 105.65510559082031
116.0 42.457820892333984 106.52112579345703
116.0 42.457820892333984 107.38715362548828
116.0 42.457820892333984 108.253173828125
116.0 42.457820892333984 109.11920166015625
116.0 42.457820892333984 109.9852294921875
116.0 42.457820892333984 110.85125732421875
116.0 43.27431869506836 91.79869079589844
116.0 43.27431869506836 92.66471862792969
116.0 43.27431869506836 93.53074645996094
116.0 43.27431869506836 94.39677429199219
116.0 43.27431869506836 95.2627944946289
116.0 43.27431869506836 96.12882232666016
116.0 43.27431869506836 96.9948501586914
116.0 43.27431869506836 97.86087036132812
116.0 43.27431869506836 98.72689819335938
116.0 43.27431869506836 99.59292602539062
116.0 43.27431869506836 100.45894622802734
116.0 43.27431869506836 101.3249740600586
116.0 43.27431869506836 102.19100189208984
116.0 43.27431869506836 103.05702209472656
116.0 43.27431869506836 103.92304992675781
116.0 43.27431869506836 104.78907775878906
116.0 43.27431869506836 105.65510559082031
116.0 43.27431869506836 106.52112579345703
116.0 43.27431869506836 107.38715362548828
116.0 43.27431869506836 108.253173828125
116.0 43.27431869506836 109.11920166015625
116.0 43.27431869506836 109.9852294921875
116.0 44.09081268310547 91.79869079589844
116.0 44.09081268310547 92.66471862792969
116.0 44.09081268310547 93.53074645996094
116.0 44.09081268310547 94.39677429199219
116.0 44.09081268310547 95.2627944946289
116.0 44.09081268310547 96.12882232666016
116.0 44.09081268310547 96.9948501586914
116.0 44.09081268310547 97.86087036132812
116.0 44.09081268310547 98.72689819335938
116.0 44.09081268310547 99.59292602539062
116.0 44.09081268310547 100.45894622802734
116.0 44.09081268310547 101.3249740600586
116.0 44.09081268310547 102.19100189208984
116.0 44.09081268310547 103.05702209472656
116.0 44.09081268310547 103.92304992675781
116.0 44.09081268310547 104.78907775878906
116.0 44.09081268310547 105.65510559082031
116.0 44.09081268310547 106.52112579345703
116.0 44.09081268310547 107.38715362548828
116.0 44.09081268310547 108.253173828125
116.0 44.09081268310547 109.11920166015625
116.0 44.09081268310547 109.9852294921875
116.0 44.907310485839844 92.66471862792969
116.0 44.907310485839844 93.53074645996094
116.0 44.907310485839844 94.39677429199219
116.0 44.907310485839844 95.2627944946289
116.0 44.907310485839844 96.12882232666016
116.0 44.907310485839844 96.9948501586914
116.0 44.907310485839844 97.86087036132812
116.0 44.907310485839844 98.72689819335938
116.0 44.907310485839844 99.59292602539062
116.0 44.907310485839844 100.45894622802734
116.0 44.907310485839844 101.3249740600586
116.0 44.907310485839844 102.19100189208984
116.0 44.907310485839844 103.05702209472656
116.0 44.907310485839844 103.92304992675781
116.0 44.907310485839844 104.78907775878906
116.0 44.907310485839844 105.65510559082031
116.0 44.907310485839844 106.52112579345703
116.0 44.907310485839844 107.38715362548828
116.0 44.907310485839844 108.253173828125
116.0 44.907310485839844 109.11920166015625
116.0 45.72380828857422 92.66471862792969
116.0 45.72380828857422 93.53074645996094
116.0 45.72380828857422 94.39677429199219
116.0 45.72380828857422 95.2627944946289
116.0 45.72380828857422 96.12882232666016
116.0 45.72380828857422 96.9948501586914
116.0 45.72380828857422 97.86087036132812
116.0 45.72380828857422 98.72689819335938
116.0 45.72380828857422 99.59292602539062
116.0 45.72380828857422 100.45894622802734
116.0 45.72380828857422 101.3249740600586
116.0 45.72380828857422 102.19100189208984
116.0 45.72380828857422 103.05702209472656
116.0 45.72380828857422 103.92304992675781
116.0 45.72380828857422 104.78907775878906
116.0 45.72380828857422 105.65510559082031
116.0 45.72380828857422 106.52112579345703
116.0 45.72380828857422 107.38715362548828
116.0 45.72380828857422 108.253173828125
116.0 46.540306091308594 93.53074645996094
116.0 46.540306091308594 94.39677429199219
116.0 46.540306091308594 95.2627944946289
116.0 46.540306091308594 96.12882232666016
116.0 46.540306091308594 96.9948501586914
116.0 46.540306091308594 97.86087036132812
116.0 46.540306091308594 98.72689819335938
116.0 46.540306091308594 99.59292602539062
116.0 46.540306091308594 100.45894622802734
116.0 46.540306091308594 101.3249740600586
116.0 46.540306091308594 102.19100189208984
116.0 46.540306091308594 103.05702209472656
116.0 46.540306091308594 103.92304992675781
116.0 46.540306091308594 104.78907775878906
116.0 46.540306091308594 105.65510559082031
116.0 46.540306091308594 106.52112579345703
116.0 46.540306091308594 107.38715362548828
116.0 47.3568000793457 94.39677429199219
116.0 47.3568000793457 95.2627944946289
116.0 47.3568000793457 96.12882232666016
116.0 47.3568000793457 96.9948501586914
116.0 47.3568000793457 97.86087036132812
116.0 47.3568000793457 98.72689819335938
116.0 47.3568000793457 99.59292602539062
116.0 47.3568000793457 100.45894622802734
116.0 47.3568000793457 101.3249740600586
116.0 47.3568000793457 102.19100189208984
116.0 47.3568000793457 103.05702209472656
116.0 47.3568000793457 103.92304992675781
116.0 47.3568000793457 104.78907775878906
116.0 48.17329788208008 96.12882232666016
116.0 48.17329788208008 96.9948501586914
116.0 48.17329788208008 97.86087036132812
116.0 48.17329788208008 98.72689819335938
116.0 48.17329788208008 99.59292602539062
116.0 48.17329788208008 100.45894622802734
116.0 48.17329788208008 101.3249740600586
116.0 48.17329788208008 102.19100189208984
116.0 48.17329788208008 103.05702209472656
116.0 48.98979187011719 96.9948501586914
116.0 48.98979187011719 97.86087036132812
116.0 48.98979187011719 98.72689819335938
116.0 48.98979187011719 99.59292602539062
116.0 48.98979187011719 100.45894622802734
116.0 48.98979187011719 101.3249740600586
116.5 30.210372924804688 96.9948501586914
116.5 30.210372924804688 97.86087036132812
116.5 30.210372924804688 98.72689819335938
116.5 30.210372924804688 99.59292602539062
116.5 30.210372924804688 100.45894622802734
116.5 31.026870727539062 95.2627944946289
116.5 31.026870727539062 96.12882232666016
116.5 31.026870727539062 96.9948501586914
116.5 31.026870727539062 97.86087036132812
116.5 31.026870727539062 98.72689819335938
116.5 31.026870727539062 99.59292602539062
116.5 31.026870727539062 100.45894622802734
116.5 31.026870727539062 101.3249740600586
116.5 31.026870727539062 102.19100189208984
116.5 31.843366622924805 94.39677429199219
116.5 31.843366622924805 95.2627944946289
116.5 31.843366622924805 96.12882232666016
116.5 31.843366622924805 96.9948501586914
116.5 31.843366622924805 97.86087036132812
116.5 31.843366622924805 98.72689819335938
116.5 31.843366622924805 99.59292602539062
116.5 31.843366622924805 100.45894622802734
116.5 31.843366622924805 101.3249740600586
116.5 31.843366622924805 102.19100189208984
116.5 31.843366622924805 103.05702209472656
116.5 31.843366622924805 103.92304992675781
116.5 32.65986251831055 93.53074645996094
116.5 32.65986251831055 94.39677429199219
116.5 32.65986251831055 95.2627944946289
116.5 32.65986251831055 96.12882232666016
116.5 32.65986251831055 96.9948501586914
116.5 32.65986251831055 97.86087036132812
116.5 32.65986251831055 98.72689819335938
116.5 32.65986251831055 99.59292602539062
116.5 32.65986251831055 100.45894622802734
116.5 32.65986251831055 101.3249740600586
116.5 32.65986251831055 102.19100189208984
116.5 32.65986251831055 103.05702209472656
116.5 32.65986251831055 103.92304992675781
116.5 33.47636032104492 90.93267059326172
116.5 33.47636032104492 91.79869079589844
116.5 33.47636032104492 92.66471862792969
116.5 33.47636032104492 93.53074645996094
116.5 33.47636032104492 94.39677429199219
116.5 33.47636032104492 95.2627944946289
116.5 33.47636032104492 96.12882232666016
116.5 33.47636032104492 96.9948501586914
116.5 33.47636032104492 97.86087036132812
116.5 33.47636032104492 98.72689819335938
116.5 33.47636032104492 99.59292602539062
116.5 33.47636032104492 100.45894622802734
116.5 33.47636032104492 101.3249740600586
116.5 33.47636032104492 102.19100189208984
116.5 33.47636032104492 103.05702209472656
116.5 33.47636032104492 103.92304992675781
116.5 33.47636032104492 104.78907775878906
116.5 34.29285430908203 90.06664276123047
116.5 34.29285430908203 90.93267059326172
116.5 34.29285430908203 91.79869079589844
116.5 34.29285430908203 92.66471862792969
116.5 34.29285430908203 93.53074645996094
116.5 34.29285430908203 94.39677429199219
116.5 34.29285430908203 95.2627944946289
116.5 34.29285430908203 96.12882232666016
116.5 34.29285430908203 96.9948501586914
116.5 34.29285430908203 97.86087036132812
116.5 34.29285430908203 98.72689819335938
116.5 34.29285430908203 99.59292602539062
116.5 34.29285430908203 100.45894622802734
116.5 34.29285430908203 101.3249740600586
116.5 34.29285430908203 102.19100189208984
116.5 34.29285430908203 103.05702209472656
116.5 34.29285430908203 103.92304992675781
116.5 34.29285430908203 104.78907775878906
116.5 34.29285430908203 105.65510559082031
116.5 35.109352111816406 90.06664276123047
116.5 35.109352111816406 90.93267059326172
116.5 35.109352111816406 91.79869079589844
116.5 35.109352111816406 92.66471862792969
116.5 35.109352111816406 93.53074645996094
116.5 35.109352111816406 94.39677429199219
116.5 35.109352111816406 95.2627944946289
116.5 35.109352111816406 96.12882232666016
116.5 35.109352111816406 96.9948501586914
116.5 35.109352111816406 97.86087036132812
116.5 35.109352111816406 98.72689819335938
116.5 35.109352111816406 99.59292602539062
116.5 35.109352111816406 100.45894622802734
116.5 35.109352111816406 101.3249740600586
116.5 35.109352111816406 102.19100189208984
116.5 35.109352111816406 103.05702209472656
116.5 35.109352111816406 103.92304992675781
116.5 35.109352111816406 104.78907775878906
116.5 35.109352111816406 105.65510559082031
116.5 35.109352111816406 106.52112579345703
116.5 35.109352111816406 107.38715362548828
116.5 35.92584991455078 90.06664276123047
116.5 35.92584991455078 90.93267059326172
116.5 35.92584991455078 91.79869079589844
116.5 35.92584991455078 92.66471862792969
116.5 35.92584991455078 93.53074645996094
116.5 35.92584991455078 94.39677429199219
116.5 35.92584991455078 95.2627944946289
116.5 35.92584991455078 96.12882232666016
116.5 35.92584991455078 96.9948501586914
116.5 35.92584991455078 97.86087036132812
116.5 35.92584991455078 98.72689819335938
116.5 35.92584991455078 99.59292602539062
116.5 35.92584991455078 100.45894622802734
116.5 35.92584991455078 101.3249740600586
116.5 35.92584991455078 102.19100189208984
116.5 35.92584991455078 103.05702209472656
116.5 35.92584991455078 103.92304992675781
116.5 35.92584991455078 104.78907775878906
116.5 35.92584991455078 105.65510559082031
116.5 35.92584991455078 106.52112579345703
116.5 35.92584991455078 107.38715362548828
116.5 35.92584991455078 108.253173828125
116.5 35.92584991455078 109.11920166015625
116.5 36.742347717285156 90.93267059326172
116.5 36.742347717285156 91.79869079589844
116.5 36.742347717285156 92.66471862792969
116.5 36.742347717285156 93.53074645996094
116.5 36.742347717285156 94.39677429199219
116.5 36.742347717285156 95.2627944946289
116.5 36.742347717285156 96.12882232666016
116.5 36.742347717285156 96.9948501586914
116.5 36.742347717285156 97.86087036132812
116.5 36.742347717285156 98.72689819335938
116.5 36.742347717285156 99.59292602539062
116.5 36.742347717285156 100.45894622802734
116.5 36.742347717285156 101.3249740600586
116.5 36.742347717285156 102.19100189208984
116.5 36.742347717285156 103.05702209472656
116.5 36.742347717285156 103.92304992675781
116.5 36.742347717285156 104.78907775878906
116.5 36.742347717285156 105.65510559082031
116.5 36.742347717285156 106.52112579345703
116.5 36.742347717285156 107.38715362548828
116.5 36.742347717285156 108.253173828125
116.5 36.742347717285156 109.11920166015625
116.5 36.742347717285156 109.9852294921875
116.5 36.742347717285156 110.85125732421875
116.5 37.558841705322266 90.93267059326172
116.5 37.558841705322266 91.79869079589844
116.5 37.558841705322266 92.66471862792969
116.5 37.558841705322266 93.53074645996094
116.5 37.558841705322266 94.39677429199219
116.5 37.558841705322266 95.2627944946289
116.5 37.558841705322266 96.12882232666016
116.5 37.558841705322266 96.9948501586914
116.5 37.558841705322266 97.86087036132812
116.5 37.558841705322266 98.72689819335938
116.5 37.558841705322266 99.59292602539062
116.5 37.558841705322266 100.45894622802734
116.5 37.558841705322266 101.3249740600586
116.5 37.558841705322266 102.19100189208984
116.5 37.558841705322266 103.05702209472656
116.5 37.558841705322266 103.92304992675781
116.5 37.558841705322266 104.78907775878906
116.5 37.558841705322266 105.65510559082031
116.5 37.558841705322266 106.52112579345703
116.5 37.558841705322266 107.38715362548828
116.5 37.558841705322266 108.253173828125
116.5 37.558841705322266 109.11920166015625
116.5 37.558841705322266 109.9852294921875
116.5 37.558841705322266 110.85125732421875
116.5 38.37533950805664 91.79869079589844
116.5 38.37533950805664 92.66471862792969
116.5 38.37533950805664 93.53074645996094
116.5 38.37533950805664 94.39677429199219
116.5 38.37533950805664 95.2627944946289
116.5 38.37533950805664 96.12882232666016
116.5 38.37533950805664 96.9948501586914
116.5 38.37533950805664 97.86087036132812
116.5 38.37533950805664 98.72689819335938
116.5 38.37533950805664 99.59292602539062
116.5 38.37533950805664 100.45894622802734
116.5 38.37533950805664 101.3249740600586
116.5 38.37533950805664 102.19100189208984
116.5 38.37533950805664 103.05702209472656
116.5 38.37533950805664 103.92304992675781
116.5 38.37533950805664 104.78907775878906
116.5 38.37533950805664 105.65510559082031
116.5 38.37533950805664 106.52112579345703
116.5 38.37533950805664 107.38715362548828
116.5 38.37533950805664 108.253173828125
116.5 38.37533950805664 109.11920166015625
116.5 38.37533950805664 109.9852294921875
116.5 38.37533950805664 110.85125732421875
116.5 38.37533950805664 111.71727752685547
116.5 39.19183349609375 91.79869079589844
116.5 39.19183349609375 92.66471862792969
116.5 39.19183349609375 93.53074645996094
116.5 39.19183349609375 94.39677429199219
116.5 39.19183349609375 95.2627944946289
116.5 39.19183349609375 96.12882232666016
116.5 39.19183349609375 96.9948501586914
116.5 39.19183349609375 97.86087036132812
116.5 39.19183349609375 98.72689819335938
116.5 39.19183349609375 99.59292602539062
116.5 39.19183349609375 100.45894622802734
116.5 39.19183349609375 101.3249740600586
116.5 39.19183349609375 102.19100189208984
116.5 39.19183349609375 103.05702209472656
116.5 39.19183349609375 103.92304992675781
116.5 39.19183349609375 104.78907775878906
116.5 39.19183349609375 105.65510559082031
116.5 39.19183349609375 106.52112579345703
116.5 39.19183349609375 107.38715362548828
116.5 39.19183349609375 108.253173828125
116.5 39.19183349609375 109.11920166015625
116.5 39.19183349609375 109.9852294921875
116.5 39.19183349609375 110.85125732421875
116.5 39.19183349609375 111.71727752685547
116.5 40.008331298828125 91.79869079589844
116.5 40.008331298828125 92.66471862792969
116.5 40.008331298828125 93.53074645996094
116.5 40.008331298828125 94.39677429199219
116.5 40.008331298828125 95.2627944946289
116.5 40.008331298828125 96.12882232666016
116.5 40.008331298828125 96.9948501586914
116.5 40.008331298828125 97.86087036132812
116.5 40.008331298828125 98.72689819335938
116.5 40.008331298828125 99.59292602539062
116.5 40.008331298828125 100.45894622802734
116.5 40.008331298828125 101.3249740600586
116.5 40.008331298828125 102.19100189208984
116.5 40.008331298828125 103.05702209472656
116.5 40.008331298828125 103.92304992675781
116.5 40.008331298828125 104.78907775878906
116.5 40.008331298828125 105.65510559082031
116.5 40.008331298828125 106.52112579345703
116.5 40.008331298828125 107.38715362548828
116.5 40.008331298828125 108.253173828125
116.5 40.008331298828125 109.11920166015625
116.5 40.008331298828125 109.9852294921875
116.5 40.008331298828125 110.85125732421875
116.5 40.008331298828125 111.71727752685547
116.5 40.8248291015625 91.79869079589844
116.5 40.8248291015625 92.66471862792969
116.5 40.8248291015625 93.53074645996094
116.5 40.8248291015625 94.39677429199219
116.5 40.8248291015625 95.2627944946289
116.5 40.8248291015625 96.12882232666016
116.5 40.8248291015625 96.9948501586914
116.5 40.8248291015625 97.86087036132812
116.5 40.8248291015625 98.72689819335938
116.5 40.8248291015625 99.59292602539062
116.5 40.8248291015625 100.45894622802734
116.5 40.8248291015625 101.3249740600586
116.5 40.8248291015625 102.19100189208984
116.5 40.8248291015625 103.05702209472656
116.5 40.8248291015625 103.92304992675781
116.5 40.8248291015625 104.78907775878906
116.5 40.8248291015625 105.65510559082031
116.5 40.8248291015625 106.52112579345703
116.5 40.8248291015625 107.38715362548828
116.5 40.8248291015625 108.253173828125
116.5 40.8248291015625 109.11920166015625
116.5 40.8248291015625 109.9852294921875
116.5 40.8248291015625 110.85125732421875
116.5 40.8248291015625 111.71727752685547
116.5 41.641326904296875 91.79869079589844
116.5 41.641326904296875 92.66471862792969
116.5 41.641326904296875 93.53074645996094
116.5 41.641326904296875 94.39677429199219
116.5 41.641326904296875 95.2627944946289
116.5 41.641326904296875 96.12882232666016
116.5 41.641326904296875 96.9948501586914
116.5 41.641326904296875 97.86087036132812
116.5 41.641326904296875 98.72689819335938
116.5 41.641326904296875 99.59292602539062
116.5 41.641326904296875 100.45894622802734
116.5 41.641326904296875 101.3249740600586
116.5 41.641326904296875 102.19100189208984
116.5 41.641326904296875 103.05702209472656
116.5 41.641326904296875 103.92304992675781
116.5 41.641326904296875 104.78907775878906
116.5 41.641326904296875 105.65510559082031
116.5 41.641326904296875 106.52112579345703
116.5 41.641326904296875 107.38715362548828
116.5 41.641326904296875 108.253173828125
116.5 41.641326904296875 109.11920166015625
116.5 41.641326904296875 109.9852294921875
116.5 41.641326904296875 110.85125732421875
116.5 41.641326904296875 111.71727752685547
116.5 42.457820892333984 91.79869079589844
116.5 42.457820892333984 92.66471862792969
116.5 42.457820892333984 93.53074645996094
116.5 42.457820892333984 94.39677429199219
116.5 42.457820892333984 95.2627944946289
116.5 42.457820892333984 96.12882232666016
116.5 42.457820892333984 96.9948501586914
116.5 42.457820892333984 97.86087036132812
116.5 42.457820892333984 98.72689819335938
116.5 42.457820892333984 99.59292602539062
116.5 42.457820892333984 100.45894622802734
116.5 42.457820892333984 101.3249740600586
116.5 42.457820892333984 102.19100189208984
116.5 42.457820892333984 103.05702209472656
116.5 42.457820892333984 103.92304992675781
116.5 42.457820892333984 104.78907775878906
116.5 42.457820892333984 105.65510559082031
116.5 42.457820892333984 106.52112579345703
116.5 42.457820892333984 107.38715362548828
116.5 42.457820892333984 108.253173828125
116.5 42.457820892333984 109.11920166015625
116.5 42.457820892333984 109.9852294921875
116.5 42.457820892333984 110.85125732421875
116.5 42.457820892333984 111.71727752685547
116.5 43.27431869506836 91.79869079589844
116.5 43.27431869506836 92.66471862792969
116.5 43.27431869506836 93.53074645996094
116.5 43.27431869506836 94.39677429199219
116.5 43.27431869506836 95.2627944946289
116.5 43.27431869506836 96.12882232666016
116.5 43.27431869506836 96.9948501586914
116.5 43.27431869506836 97.86087036132812
116.5 43.27431869506836 98.72689819335938
116.5 43.27431869506836 99.59292602539062
116.5 43.27431869506836 100.45894622802734
116.5 43.27431869506836 101.3249740600586
116.5 43.27431869506836 102.19100189208984
116.5 43.27431869506836 103.05702209472656
116.5 43.27431869506836 103.92304992675781
116.5 43.27431869506836 104.78907775878906
116.5 43.27431869506836 105.65510559082031
116.5 43.27431869506836 106.52112579345703
116.5 43.27431869506836 107.38715362548828
116.5 43.27431869506836 108.253173828125
116.5 43.27431869506836 109.11920166015625
116.5 43.27431869506836 109.9852294921875
116.5 43.27431869506836 110.85125732421875
116.5 44.09081268310547 91.79869079589844
116.5 44.09081268310547 92.66471862792969
116.5 44.09081268310547 93.53074645996094
116.5 44.09081268310547 94.39677429199219
116.5 44.09081268310547 95.2627944946289
116.5 44.09081268310547 96.12882232666016
116.5 44.09081268310547 96.9948501586914
116.5 44.09081268310547 97.86087036132812
116.5 44.09081268310547 98.72689819335938
116.5 44.09081268310547 99.59292602539062
116.5 44.09081268310547 100.45894622802734
116.5 44.09081268310547 101.3249740600586
116.5 44.09081268310547 102.19100189208984
116.5 44.09081268310547 103.05702209472656
116.5 44.09081268310547 103.92304992675781
116.5 44.09081268310547 104.78907775878906
116.5 44.09081268310547 105.65510559082031
116.5 44.09081268310547 106.52112579345703
116.5 44.09081268310547 107.38715362548828
116.5 44.09081268310547 108.253173828125
116.5 44.09081268310547 109.11920166015625
116.5 44.09081268310547 109.9852294921875
116.5 44.907310485839844 92.66471862792969
116.5 44.907310485839844 93.53074645996094
116.5 44.907310485839844 94.39677429199219
116.5 44.907310485839844 95.2627944946289
116.5 44.907310485839844 96.12882232666016
116.5 44.907310485839844 96.9948501586914
116.5 44.907310485839844 97.86087036132812
116.5 44.907310485839844 98.72689819335938
116.5 44.907310485839844 99.59292602539062
116.5 44.907310485839844 100.45894622802734
116.5 44.907310485839844 101.3249740600586
116.5 44.907310485839844 102.19100189208984
116.5 44.907310485839844 103.05702209472656
116.5 44.907310485839844 103.92304992675781
116.5 44.907310485839844 104.78907775878906
116.5 44.907310485839844 105.65510559082031
116.5 44.907310485839844 106.52112579345703
116.5 44.907310485839844 107.38715362548828
116.5 44.907310485839844 108.253173828125
116.5 44.907310485839844 109.11920166015625
116.5 44.907310485839844 109.9852294921875
116.5 45.72380828857422 92.66471862792969
116.5 45.72380828857422 93.53074645996094
116.5 45.72380828857422 94.39677429199219
116.5 45.72380828857422 95.2627944946289
116.5 45.72380828857422 96.12882232666016
116.5 45.72380828857422 96.9948501586914
116.5 45.72380828857422 97.86087036132812
116.5 45.72380828857422 98.72689819335938
116.5 45.72380828857422 99.59292602539062
116.5 45.72380828857422 100.45894622802734
116.5 45.72380828857422 101.3249740600586
116.5 45.72380828857422 102.19100189208984
116.5 45.72380828857422 103.05702209472656
116.5 45.72380828857422 103.92304992675781
116.5 45.72380828857422 104.78907775878906
116.5 45.72380828857422 105.65510559082031
116.5 45.72380828857422 106.52112579345703
116.5 45.72380828857422 107.38715362548828
116.5 45.72380828857422 108.253173828125
116.5 46.540306091308594 93.53074645996094
116.5 46.540306091308594 94.39677429199219
116.5 46.540306091308594 95.2627944946289
116.5 46.540306091308594 96.12882232666016
116.5 46.540306091308594 96.9948501586914
116.5 46.540306091308594 97.86087036132812
116.5 46.540306091308594 98.72689819335938
116.5 46.540306091308594 99.59292602539062
116.5 46.540306091308594 100.45894622802734
116.5 46.540306091308594 101.3249740600586
116.5 46.540306091308594 102.19100189208984
116.5 46.540306091308594 103.05702209472656
116.5 46.540306091308594 103.92304992675781
116.5 46.540306091308594 104.78907775878906
116.5 46.540306091308594 105.65510559082031
116.5 46.540306091308594 106.52112579345703
116.5 46.540306091308594 107.38715362548828
116.5 47.3568000793457 95.2627944946289
116.5 47.3568000793457 96.12882232666016
116.5 47.3568000793457 96.9948501586914
116.5 47.3568000793457 97.86087036132812
116.5 47.3568000793457 98.72689819335938
116.5 47.3568000793457 99.59292602539062
116.5 47.3568000793457 100.45894622802734
116.5 47.3568000793457 101.3249740600586
116.5 47.3568000793457 102.19100189208984
116.5 47.3568000793457 103.05702209472656
116.5 47.3568000793457 103.92304992675781
116.5 47.3568000793457 104.78907775878906
116.5 48.17329788208008 96.12882232666016
116.5 48.17329788208008 96.9948501586914
116.5 48.17329788208008 97.86087036132812
116.5 48.17329788208008 98.72689819335938
116.5 48.17329788208008 99.59292602539062
116.5 48.17329788208008 100.45894622802734
116.5 48.17329788208008 101.3249740600586
116.5 48.17329788208008 102.19100189208984
116.5 48.17329788208008 103.05702209472656
116.5 48.98979187011719 96.9948501586914
116.5 48.98979187011719 97.86087036132812
116.5 48.98979187011719 98.72689819335938
116.5 48.98979187011719 99.59292602539062
116.5 48.98979187011719 100.45894622802734
116.5 48.98979187011719 101.3249740600586
117.0 30.210372924804688 96.9948501586914
117.0 30.210372924804688 97.86087036132812
117.0 30.210372924804688 98.72689819335938
117.0 30.210372924804688 99.59292602539062
117.0 30.210372924804688 100.45894622802734
117.0 30.210372924804688 101.3249740600586
117.0 31.026870727539062 96.12882232666016
117.0 31.026870727539062 96.9948501586914
117.0 31.026870727539062 97.86087036132812
117.0 31.026870727539062 98.72689819335938
117.0 31.026870727539062 99.59292602539062
117.0 31.026870727539062 100.45894622802734
117.0 31.026870727539062 101.3249740600586
117.0 31.026870727539062 102.19100189208984
117.0 31.843366622924805 95.2627944946289
117.0 31.843366622924805 96.12882232666016
117.0 31.843366622924805 96.9948501586914
117.0 31.843366622924805 97.86087036132812
117.0 31.843366622924805 98.72689819335938
117.0 31.843366622924805 99.59292602539062
117.0 31.843366622924805 100.45894622802734
117.0 31.843366622924805 101.3249740600586
117.0 31.843366622924805 102.19100189208984
117.0 31.843366622924805 103.05702209472656
117.0 32.65986251831055 92.66471862792969
117.0 32.65986251831055 93.53074645996094
117.0 32.65986251831055 94.39677429199219
117.0 32.65986251831055 95.2627944946289
117.0 32.65986251831055 96.12882232666016
117.0 32.65986251831055 96.9948501586914
117.0 32.65986251831055 97.86087036132812
117.0 32.65986251831055 98.72689819335938
117.0 32.65986251831055 99.59292602539062
117.0 32.65986251831055 100.45894622802734
117.0 32.65986251831055 101.3249740600586
117.0 32.65986251831055 102.19100189208984
117.0 32.65986251831055 103.05702209472656
117.0 32.65986251831055 103.92304992675781
117.0 33.47636032104492 90.93267059326172
117.0 33.47636032104492 91.79869079589844
117.0 33.47636032104492 92.66471862792969
117.0 33.47636032104492 93.53074645996094
117.0 33.47636032104492 94.39677429199219
117.0 33.47636032104492 95.2627944946289
117.0 33.47636032104492 96.12882232666016
117.0 33.47636032104492 96.9948501586914
117.0 33.47636032104492 97.86087036132812
117.0 33.47636032104492 98.72689819335938
