83.5 37.558841705322266 111.71728515625
83.5 39.19183349609375 94.39677429199219
83.5 39.19183349609375 96.12882232666016
83.5 39.19183349609375 97.86087036132812
83.5 39.19183349609375 99.59292602539062
83.5 39.19183349609375 101.3249740600586
83.5 39.19183349609375 103.05702209472656
83.5 39.19183349609375 104.78907775878906
83.5 39.19183349609375 106.52112579345703
83.5 39.19183349609375 108.25318145751953
83.5 39.19183349609375 109.9852294921875
83.5 39.19183349609375 111.71728515625
83.5 40.8248291015625 94.39677429199219
83.5 40.8248291015625 96.12882232666016
83.5 40.8248291015625 97.86087036132812
83.5 40.8248291015625 99.59292602539062
83.5 40.8248291015625 101.3249740600586
83.5 40.8248291015625 103.05702209472656
83.5 40.8248291015625 104.78907775878906
83.5 40.8248291015625 106.52112579345703
83.5 40.8248291015625 108.25318145751953
83.5 40.8248291015625 109.9852294921875
83.5 40.8248291015625 111.71728515625
83.5 42.457820892333984 94.39677429199219
83.5 42.457820892333984 96.12882232666016
83.5 42.457820892333984 97.86087036132812
83.5 42.457820892333984 99.59292602539062
83.5 42.457820892333984 101.3249740600586
83.5 42.457820892333984 103.05702209472656
83.5 42.457820892333984 104.78907775878906
83.5 42.457820892333984 106.52112579345703
83.5 42.457820892333984 108.25318145751953
83.5 42.457820892333984 109.9852294921875
83.5 44.09081268310547 94.39677429199219
83.5 44.09081268310547 96.12882232666016
83.5 44.09081268310547 97.86087036132812
83.5 44.09081268310547 99.59292602539062
83.5 44.09081268310547 101.3249740600586
83.5 44.09081268310547 103.05702209472656
83.5 44.09081268310547 104.78907775878906
83.5 44.09081268310547 106.52112579345703
83.5 44.09081268310547 108.25318145751953
83.5 44.09081268310547 109.9852294921875
83.5 45.72380828857422 96.12882232666016
83.5 45.72380828857422 97.86087036132812
83.5 45.72380828857422 99.59292602539062
83.5 45.72380828857422 101.3249740600586
83.5 45.72380828857422 103.05702209472656
83.5 45.72380828857422 104.78907775878906
83.5 45.72380828857422 106.52112579345703
83.5 45.72380828857422 108.25318145751953
83.5 47.3568000793457 97.86087036132812
83.5 47.3568000793457 99.59292602539062
83.5 47.3568000793457 101.3249740600586
83.5 47.3568000793457 103.05702209472656
84.5 32.65986251831055 99.59292602539062
84.5 32.65986251831055 101.3249740600586
84.5 32.65986251831055 103.05702209472656
84.5 32.65986251831055 104.78907775878906
84.5 32.65986251831055 106.52112579345703
84.5 32.65986251831055 108.25318145751953
84.5 34.29285430908203 96.12882232666016
84.5 34.29285430908203 97.86087036132812
84.5 34.29285430908203 99.59292602539062
84.5 34.29285430908203 101.3249740600586
84.5 34.29285430908203 103.05702209472656
84.5 34.29285430908203 104.78907775878906
84.5 34.29285430908203 106.52112579345703
84.5 34.29285430908203 108.25318145751953
84.5 34.29285430908203 109.9852294921875
84.5 35.92584991455078 96.12882232666016
84.5 35.92584991455078 97.86087036132812
84.5 35.92584991455078 99.59292602539062
84.5 35.92584991455078 101.3249740600586
84.5 35.92584991455078 103.05702209472656
84.5 35.92584991455078 104.78907775878906
84.5 35.92584991455078 106.52112579345703
84.5 35.92584991455078 108.25318145751953
84.5 35.92584991455078 109.9852294921875
84.5 37.558841705322266 94.39677429199219
84.5 37.558841705322266 96.12882232666016
84.5 37.558841705322266 97.86087036132812
84.5 37.558841705322266 99.59292602539062
84.5 37.558841705322266 101.3249740600586
84.5 37.558841705322266 103.05702209472656
84.5 37.558841705322266 104.78907775878906
84.5 37.558841705322266 106.52112579345703
84.5 37.558841705322266 108.25318145751953
84.5 37.558841705322266 109.9852294921875
84.5 37.558841705322266 111.71728515625
84.5 39.19183349609375 94.39677429199219
84.5 39.19183349609375 96.12882232666016
84.5 39.19183349609375 97.86087036132812
84.5 39.19183349609375 99.59292602539062
84.5 39.19183349609375 101.3249740600586
84.5 39.19183349609375 103.05702209472656
84.5 39.19183349609375 104.78907775878906
84.5 39.19183349609375 106.52112579345703
84.5 39.19183349609375 108.25318145751953
84.5 39.19183349609375 109.9852294921875
84.5 39.19183349609375 111.71728515625
84.5 40.8248291015625 94.39677429199219
84.5 40.8248291015625 96.12882232666016
84.5 40.8248291015625 97.86087036132812
84.5 40.8248291015625 99.59292602539062
84.5 40.8248291015625 101.3249740600586
84.5 40.8248291015625 103.05702209472656
84.5 40.8248291015625 104.78907775878906
84.5 40.8248291015625 106.52112579345703
84.5 40.8248291015625 108.25318145751953
84.5 40.8248291015625 109.9852294921875
84.5 40.8248291015625 111.71728515625
84.5 42.457820892333984 94.39677429199219
84.5 42.457820892333984 96.12882232666016
84.5 42.457820892333984 97.86087036132812
84.5 42.457820892333984 99.59292602539062
84.5 42.457820892333984 101.3249740600586
84.5 42.457820892333984 103.05702209472656
84.5 42.457820892333984 104.78907775878906
84.5 42.457820892333984 106.52112579345703
84.5 42.457820892333984 108.25318145751953
84.5 42.457820892333984 109.9852294921875
84.5 44.09081268310547 96.12882232666016
84.5 44.09081268310547 97.86087036132812
84.5 44.09081268310547 99.59292602539062
84.5 44.09081268310547 101.3249740600586
84.5 44.09081268310547 103.05702209472656
84.5 44.09081268310547 104.78907775878906
84.5 44.09081268310547 106.52112579345703
84.5 44.09081268310547 108.25318145751953
84.5 44.09081268310547 109.9852294921875
84.5 45.72380828857422 96.12882232666016
84.5 45.72380828857422 97.86087036132812
84.5 45.72380828857422 99.59292602539062
84.5 45.72380828857422 101.3249740600586
84.5 45.72380828857422 103.05702209472656
84.5 45.72380828857422 104.78907775878906
84.5 45.72380828857422 106.52112579345703
84.5 47.3568000793457 97.86087036132812
84.5 47.3568000793457 99.59292602539062
84.5 47.3568000793457 101.3249740600586
84.5 47.3568000793457 103.05702209472656
85.5 34.29285430908203 96.12882232666016
85.5 34.29285430908203 97.86087036132812
85.5 34.29285430908203 99.59292602539062
85.5 34.29285430908203 101.3249740600586
85.5 34.29285430908203 103.05702209472656
85.5 34.29285430908203 104.78907775878906
85.5 34.29285430908203 106.52112579345703
85.5 34.29285430908203 108.25318145751953
85.5 35.92584991455078 96.12882232666016
85.5 35.92584991455078 97.86087036132812
85.5 35.92584991455078 99.59292602539062
85.5 35.92584991455078 101.3249740600586
85.5 35.92584991455078 103.05702209472656
85.5 35.92584991455078 104.78907775878906
85.5 35.92584991455078 106.52112579345703
85.5 35.92584991455078 108.25318145751953
85.5 35.92584991455078 109.9852294921875
85.5 37.558841705322266 94.39677429199219
85.5 37.558841705322266 96.12882232666016
85.5 37.558841705322266 97.86087036132812
85.5 37.558841705322266 99.59292602539062
85.5 37.558841705322266 101.3249740600586
85.5 37.558841705322266 103.05702209472656
85.5 37.558841705322266 104.78907775878906
85.5 37.558841705322266 106.52112579345703
85.5 37.558841705322266 108.25318145751953
85.5 37.558841705322266 109.9852294921875
85.5 39.19183349609375 94.39677429199219
85.5 39.19183349609375 96.12882232666016
85.5 39.19183349609375 97.86087036132812
85.5 39.19183349609375 99.59292602539062
85.5 39.19183349609375 101.3249740600586
85.5 39.19183349609375 103.05702209472656
85.5 39.19183349609375 104.78907775878906
85.5 39.19183349609375 106.52112579345703
85.5 39.19183349609375 108.25318145751953
85.5 39.19183349609375 109.9852294921875
85.5 40.8248291015625 94.39677429199219
85.5 40.8248291015625 96.12882232666016
85.5 40.8248291015625 97.86087036132812
85.5 40.8248291015625 99.59292602539062
85.5 40.8248291015625 101.3249740600586
85.5 40.8248291015625 103.05702209472656
85.5 40.8248291015625 104.78907775878906
85.5 40.8248291015625 106.52112579345703
85.5 40.8248291015625 108.25318145751953
85.5 40.8248291015625 109.9852294921875
85.5 42.457820892333984 96.12882232666016
85.5 42.457820892333984 97.86087036132812
85.5 42.457820892333984 99.59292602539062
85.5 42.457820892333984 101.3249740600586
85.5 42.457820892333984 103.05702209472656
85.5 42.457820892333984 104.78907775878906
85.5 42.457820892333984 106.52112579345703
85.5 42.457820892333984 108.25318145751953
85.5 42.457820892333984 109.9852294921875
85.5 44.09081268310547 96.12882232666016
85.5 44.09081268310547 97.86087036132812
85.5 44.09081268310547 99.59292602539062
85.5 44.09081268310547 101.3249740600586
85.5 44.09081268310547 103.05702209472656
85.5 44.09081268310547 104.78907775878906
85.5 44.09081268310547 106.52112579345703
85.5 44.09081268310547 108.25318145751953
85.5 44.09081268310547 109.9852294921875
85.5 45.72380828857422 96.12882232666016
85.5 45.72380828857422 97.86087036132812
85.5 45.72380828857422 99.59292602539062
85.5 45.72380828857422 101.3249740600586
85.5 45.72380828857422 103.05702209472656
85.5 45.72380828857422 104.78907775878906
85.5 45.72380828857422 106.52112579345703
85.5 47.3568000793457 99.59292602539062
85.5 47.3568000793457 101.3249740600586
85.5 47.3568000793457 103.05702209472656
86.5 34.29285430908203 97.86087036132812
86.5 34.29285430908203 99.59292602539062
86.5 34.29285430908203 101.3249740600586
86.5 34.29285430908203 103.05702209472656
86.5 34.29285430908203 104.78907775878906
86.5 35.92584991455078 96.12882232666016
86.5 35.92584991455078 97.86087036132812
86.5 35.92584991455078 99.59292602539062
86.5 35.92584991455078 101.3249740600586
86.5 35.92584991455078 103.05702209472656
86.5 35.92584991455078 104.78907775878906
86.5 35.92584991455078 106.52112579345703
86.5 35.92584991455078 108.25318145751953
86.5 37.558841705322266 96.12882232666016
86.5 37.558841705322266 97.86087036132812
86.5 37.558841705322266 99.59292602539062
86.5 37.558841705322266 101.3249740600586
86.5 37.558841705322266 103.05702209472656
86.5 37.558841705322266 104.78907775878906
86.5 37.558841705322266 106.52112579345703
86.5 37.558841705322266 108.25318145751953
86.5 37.558841705322266 109.9852294921875
86.5 39.19183349609375 96.12882232666016
86.5 39.19183349609375 97.86087036132812
86.5 39.19183349609375 99.59292602539062
86.5 39.19183349609375 101.3249740600586
86.5 39.19183349609375 103.05702209472656
86.5 39.19183349609375 104.78907775878906
86.5 39.19183349609375 106.52112579345703
86.5 39.19183349609375 108.25318145751953
86.5 39.19183349609375 109.9852294921875
86.5 40.8248291015625 96.12882232666016
86.5 40.8248291015625 97.86087036132812
86.5 40.8248291015625 99.59292602539062
86.5 40.8248291015625 101.3249740600586
86.5 40.8248291015625 103.05702209472656
86.5 40.8248291015625 104.78907775878906
86.5 40.8248291015625 106.52112579345703
86.5 40.8248291015625 108.25318145751953
86.5 40.8248291015625 109.9852294921875
86.5 42.457820892333984 96.12882232666016
86.5 42.457820892333984 97.86087036132812
86.5 42.457820892333984 99.59292602539062
86.5 42.457820892333984 101.3249740600586
86.5 42.457820892333984 103.05702209472656
86.5 42.457820892333984 104.78907775878906
86.5 42.457820892333984 106.52112579345703
86.5 42.457820892333984 108.25318145751953
86.5 42.457820892333984 109.9852294921875
86.5 44.09081268310547 96.12882232666016
86.5 44.09081268310547 97.86087036132812
86.5 44.09081268310547 99.59292602539062
86.5 44.09081268310547 101.3249740600586
86.5 44.09081268310547 103.05702209472656
86.5 44.09081268310547 104.78907775878906
86.5 44.09081268310547 106.52112579345703
86.5 44.09081268310547 108.25318145751953
86.5 45.72380828857422 97.86087036132812
86.5 45.72380828857422 99.59292602539062
86.5 45.72380828857422 101.3249740600586
86.5 45.72380828857422 103.05702209472656
86.5 45.72380828857422 104.78907775878906
86.5 47.3568000793457 99.59292602539062
86.5 47.3568000793457 101.3249740600586
86.5 47.3568000793457 103.05702209472656
87.5 35.92584991455078 97.86087036132812
87.5 35.92584991455078 99.59292602539062
87.5 37.558841705322266 96.12882232666016
87.5 37.558841705322266 97.86087036132812
87.5 37.558841705322266 99.59292602539062
87.5 37.558841705322266 101.3249740600586
87.5 37.558841705322266 103.05702209472656
87.5 39.19183349609375 96.12882232666016
87.5 39.19183349609375 97.86087036132812
87.5 39.19183349609375 99.59292602539062
87.5 39.19183349609375 101.3249740600586
87.5 39.19183349609375 103.05702209472656
87.5 39.19183349609375 104.78907775878906
87.5 39.19183349609375 106.52112579345703
87.5 40.8248291015625 96.12882232666016
87.5 40.8248291015625 97.86087036132812
87.5 40.8248291015625 99.59292602539062
87.5 40.8248291015625 101.3249740600586
87.5 40.8248291015625 103.05702209472656
87.5 40.8248291015625 104.78907775878906
87.5 40.8248291015625 106.52112579345703
87.5 40.8248291015625 108.25318145751953
87.5 42.457820892333984 96.12882232666016
87.5 42.457820892333984 97.86087036132812
87.5 42.457820892333984 99.59292602539062
87.5 42.457820892333984 101.3249740600586
87.5 42.457820892333984 103.05702209472656
87.5 42.457820892333984 104.78907775878906
87.5 42.457820892333984 106.52112579345703
87.5 42.457820892333984 108.25318145751953
87.5 44.09081268310547 96.12882232666016
87.5 44.09081268310547 97.86087036132812
87.5 44.09081268310547 99.59292602539062
87.5 44.09081268310547 101.3249740600586
87.5 44.09081268310547 103.05702209472656
87.5 44.09081268310547 104.78907775878906
87.5 44.09081268310547 106.52112579345703
87.5 45.72380828857422 97.86087036132812
87.5 45.72380828857422 99.59292602539062
87.5 45.72380828857422 101.3249740600586
87.5 45.72380828857422 103.05702209472656
87.5 45.72380828857422 104.78907775878906
87.5 47.3568000793457 101.3249740600586
88.5 37.558841705322266 97.86087036132812
88.5 37.558841705322266 99.59292602539062
88.5 39.19183349609375 97.86087036132812
88.5 39.19183349609375 99.59292602539062
88.5 39.19183349609375 101.3249740600586
88.5 40.8248291015625 96.12882232666016
88.5 40.8248291015625 97.86087036132812
88.5 40.8248291015625 99.59292602539062
88.5 40.8248291015625 101.3249740600586
88.5 40.8248291015625 103.05702209472656
88.5 42.457820892333984 97.86087036132812
88.5 42.457820892333984 99.59292602539062
88.5 42.457820892333984 101.3249740600586
88.5 42.457820892333984 103.05702209472656
88.5 42.457820892333984 104.78907775878906
88.5 44.09081268310547 97.86087036132812
88.5 44.09081268310547 99.59292602539062
88.5 44.09081268310547 101.3249740600586
88.5 44.09081268310547 103.05702209472656
88.5 44.09081268310547 104.78907775878906
88.5 45.72380828857422 99.59292602539062
88.5 45.72380828857422 101.3249740600586
88.5 45.72380828857422 103.05702209472656
89.5 40.8248291015625 97.86087036132812
89.5 40.8248291015625 99.59292602539062
89.5 40.8248291015625 101.3249740600586
89.5 42.457820892333984 97.86087036132812
89.5 42.457820892333984 99.59292602539062
89.5 42.457820892333984 101.3249740600586
89.5 42.457820892333984 103.05702209472656
89.5 44.09081268310547 99.59292602539062
89.5 44.09081268310547 101.3249740600586
89.5 44.09081268310547 103.05702209472656
89.5 45.72380828857422 101.3249740600586
89.5 45.72380828857422 103.05702209472656
69.0 41.641326904296875 97.57218933105469
70.0 40.008331298828125 95.84014129638672
70.0 40.008331298828125 97.57218933105469
70.0 40.008331298828125 99.30424499511719
70.0 40.008331298828125 101.03629302978516
70.0 41.641326904296875 95.84014129638672
70.0 41.641326904296875 97.57218933105469
70.0 41.641326904296875 99.30424499511719
70.0 41.641326904296875 101.03629302978516
70.0 41.641326904296875 102.76834106445312
70.0 43.27431869506836 95.84014129638672
70.0 43.27431869506836 97.57218933105469
70.0 43.27431869506836 99.30424499511719
70.0 43.27431869506836 101.03629302978516
71.0 38.37533950805664 95.84014129638672
71.0 38.37533950805664 97.57218933105469
71.0 38.37533950805664 99.30424499511719
71.0 38.37533950805664 104.50039672851562
71.0 40.008331298828125 95.84014129638672
71.0 40.008331298828125 97.57218933105469
71.0 40.008331298828125 99.30424499511719
71.0 40.008331298828125 101.03629302978516
71.0 40.008331298828125 102.76834106445312
71.0 40.008331298828125 104.50039672851562
71.0 41.641326904296875 95.84014129638672
71.0 41.641326904296875 97.57218933105469
71.0 41.641326904296875 99.30424499511719
71.0 41.641326904296875 101.03629302978516
71.0 41.641326904296875 102.76834106445312
71.0 41.641326904296875 104.50039672851562
71.0 43.27431869506836 95.84014129638672
71.0 43.27431869506836 97.57218933105469
71.0 43.27431869506836 99.30424499511719
71.0 43.27431869506836 101.03629302978516
71.0 43.27431869506836 102.76834106445312
71.0 43.27431869506836 104.50039672851562
71.0 44.907310485839844 95.84014129638672
71.0 44.907310485839844 97.57218933105469
71.0 44.907310485839844 99.30424499511719
71.0 44.907310485839844 101.03629302978516
71.0 44.907310485839844 102.76834106445312
71.0 44.907310485839844 104.50039672851562
72.0 38.37533950805664 95.84014129638672
72.0 38.37533950805664 97.57218933105469
72.0 38.37533950805664 99.30424499511719
72.0 38.37533950805664 101.03629302978516
72.0 38.37533950805664 102.76834106445312
72.0 38.37533950805664 104.50039672851562
72.0 38.37533950805664 106.2324447631836
72.0 40.008331298828125 94.10809326171875
72.0 40.008331298828125 95.84014129638672
72.0 40.008331298828125 97.57218933105469
72.0 40.008331298828125 99.30424499511719
72.0 40.008331298828125 101.03629302978516
72.0 40.008331298828125 102.76834106445312
72.0 40.008331298828125 104.50039672851562
72.0 40.008331298828125 106.2324447631836
72.0 41.641326904296875 94.10809326171875
72.0 41.641326904296875 95.84014129638672
72.0 41.641326904296875 97.57218933105469
72.0 41.641326904296875 99.30424499511719
72.0 41.641326904296875 101.03629302978516
72.0 41.641326904296875 102.76834106445312
72.0 41.641326904296875 104.50039672851562
72.0 41.641326904296875 106.2324447631836
72.0 43.27431869506836 94.10809326171875
72.0 43.27431869506836 95.84014129638672
72.0 43.27431869506836 97.57218933105469
72.0 43.27431869506836 99.30424499511719
72.0 43.27431869506836 101.03629302978516
72.0 43.27431869506836 102.76834106445312
72.0 43.27431869506836 104.50039672851562
72.0 43.27431869506836 106.2324447631836
72.0 44.907310485839844 95.84014129638672
72.0 44.907310485839844 97.57218933105469
72.0 44.907310485839844 99.30424499511719
72.0 44.907310485839844 101.03629302978516
72.0 44.907310485839844 102.76834106445312
72.0 44.907310485839844 104.50039672851562
72.0 46.540306091308594 95.84014129638672
72.0 46.540306091308594 97.57218933105469
72.0 46.540306091308594 99.30424499511719
72.0 46.540306091308594 101.03629302978516
72.0 46.540306091308594 102.76834106445312
72.0 46.540306091308594 104.50039672851562
72.0 48.17329788208008 101.03629302978516
72.0 48.17329788208008 102.76834106445312
73.0 36.742347717285156 95.84014129638672
73.0 36.742347717285156 97.57218933105469
73.0 36.742347717285156 99.30424499511719
73.0 36.742347717285156 101.03629302978516
73.0 36.742347717285156 102.76834106445312
73.0 36.742347717285156 104.50039672851562
73.0 36.742347717285156 106.2324447631836
73.0 38.37533950805664 94.10809326171875
73.0 38.37533950805664 95.84014129638672
73.0 38.37533950805664 97.57218933105469
73.0 38.37533950805664 99.30424499511719
73.0 38.37533950805664 101.03629302978516
73.0 38.37533950805664 102.76834106445312
73.0 38.37533950805664 104.50039672851562
73.0 38.37533950805664 106.2324447631836
73.0 38.37533950805664 107.9645004272461
73.0 40.008331298828125 94.10809326171875
73.0 40.008331298828125 95.84014129638672
73.0 40.008331298828125 97.57218933105469
73.0 40.008331298828125 99.30424499511719
73.0 40.008331298828125 101.03629302978516
73.0 40.008331298828125 102.76834106445312
73.0 40.008331298828125 104.50039672851562
73.0 40.008331298828125 106.2324447631836
73.0 40.008331298828125 107.9645004272461
73.0 41.641326904296875 94.10809326171875
73.0 41.641326904296875 95.84014129638672
73.0 41.641326904296875 97.57218933105469
73.0 41.641326904296875 99.30424499511719
73.0 41.641326904296875 101.03629302978516
73.0 41.641326904296875 102.76834106445312
73.0 41.641326904296875 104.50039672851562
73.0 41.641326904296875 106.2324447631836
73.0 43.27431869506836 94.10809326171875
73.0 43.27431869506836 95.84014129638672
73.0 43.27431869506836 97.57218933105469
73.0 43.27431869506836 99.30424499511719
73.0 43.27431869506836 101.03629302978516
73.0 43.27431869506836 102.76834106445312
73.0 43.27431869506836 104.50039672851562
73.0 43.27431869506836 106.2324447631836
73.0 44.907310485839844 95.84014129638672
73.0 44.907310485839844 97.57218933105469
73.0 44.907310485839844 99.30424499511719
73.0 44.907310485839844 101.03629302978516
73.0 44.907310485839844 102.76834106445312
73.0 44.907310485839844 104.50039672851562
73.0 44.907310485839844 106.2324447631836
73.0 46.540306091308594 95.84014129638672
73.0 46.540306091308594 97.57218933105469
73.0 46.540306091308594 99.30424499511719
73.0 46.540306091308594 101.03629302978516
73.0 46.540306091308594 102.76834106445312
73.0 46.540306091308594 104.50039672851562
73.0 48.17329788208008 95.84014129638672
73.0 48.17329788208008 97.57218933105469
73.0 48.17329788208008 99.30424499511719
73.0 48.17329788208008 101.03629302978516
73.0 48.17329788208008 102.76834106445312
73.0 48.17329788208008 104.50039672851562
74.0 35.109352111816406 95.84014129638672
74.0 35.109352111816406 97.57218933105469
74.0 35.109352111816406 99.30424499511719
74.0 35.109352111816406 101.03629302978516
74.0 35.109352111816406 102.76834106445312
74.0 35.109352111816406 104.50039672851562
74.0 35.109352111816406 106.2324447631836
74.0 35.109352111816406 107.9645004272461
74.0 36.742347717285156 94.10809326171875
74.0 36.742347717285156 95.84014129638672
74.0 36.742347717285156 97.57218933105469
74.0 36.742347717285156 99.30424499511719
74.0 36.742347717285156 101.03629302978516
74.0 36.742347717285156 102.76834106445312
74.0 36.742347717285156 104.50039672851562
74.0 36.742347717285156 106.2324447631836
74.0 36.742347717285156 107.9645004272461
74.0 38.37533950805664 94.10809326171875
74.0 38.37533950805664 95.84014129638672
74.0 38.37533950805664 97.57218933105469
74.0 38.37533950805664 99.30424499511719
74.0 38.37533950805664 101.03629302978516
74.0 38.37533950805664 102.76834106445312
74.0 38.37533950805664 104.50039672851562
74.0 38.37533950805664 106.2324447631836
74.0 38.37533950805664 107.9645004272461
74.0 40.008331298828125 92.37603759765625
74.0 40.008331298828125 94.10809326171875
74.0 40.008331298828125 95.84014129638672
74.0 40.008331298828125 97.57218933105469
74.0 40.008331298828125 99.30424499511719
74.0 40.008331298828125 101.03629302978516
74.0 40.008331298828125 102.76834106445312
74.0 40.008331298828125 104.50039672851562
74.0 40.008331298828125 106.2324447631836
74.0 40.008331298828125 107.9645004272461
74.0 41.641326904296875 92.37603759765625
74.0 41.641326904296875 94.10809326171875
74.0 41.641326904296875 95.84014129638672
74.0 41.641326904296875 97.57218933105469
74.0 41.641326904296875 99.30424499511719
74.0 41.641326904296875 101.03629302978516
74.0 41.641326904296875 102.76834106445312
74.0 41.641326904296875 104.50039672851562
74.0 41.641326904296875 106.2324447631836
74.0 41.641326904296875 107.9645004272461
74.0 43.27431869506836 94.10809326171875
74.0 43.27431869506836 95.84014129638672
74.0 43.27431869506836 97.57218933105469
74.0 43.27431869506836 99.30424499511719
74.0 43.27431869506836 101.03629302978516
74.0 43.27431869506836 102.76834106445312
74.0 43.27431869506836 104.50039672851562
74.0 43.27431869506836 106.2324447631836
74.0 43.27431869506836 107.9645004272461
74.0 44.907310485839844 94.10809326171875
74.0 44.907310485839844 95.84014129638672
74.0 44.907310485839844 97.57218933105469
74.0 44.907310485839844 99.30424499511719
74.0 44.907310485839844 101.03629302978516
74.0 44.907310485839844 102.76834106445312
74.0 44.907310485839844 104.50039672851562
74.0 44.907310485839844 106.2324447631836
74.0 46.540306091308594 94.10809326171875
74.0 46.540306091308594 95.84014129638672
74.0 46.540306091308594 97.57218933105469
74.0 46.540306091308594 99.30424499511719
74.0 46.540306091308594 101.03629302978516
74.0 46.540306091308594 102.76834106445312
74.0 46.540306091308594 104.50039672851562
74.0 46.540306091308594 106.2324447631836
74.0 48.17329788208008 95.84014129638672
74.0 48.17329788208008 97.57218933105469
74.0 48.17329788208008 99.30424499511719
74.0 48.17329788208008 101.03629302978516
74.0 48.17329788208008 102.76834106445312
74.0 48.17329788208008 104.50039672851562
74.0 49.80628967285156 101.03629302978516
75.0 33.47636032104492 99.30424499511719
75.0 33.47636032104492 101.03629302978516
75.0 33.47636032104492 102.76834106445312
75.0 33.47636032104492 104.50039672851562
75.0 33.47636032104492 106.2324447631836
75.0 35.109352111816406 94.10809326171875
75.0 35.109352111816406 95.84014129638672
75.0 35.109352111816406 97.57218933105469
75.0 35.109352111816406 99.30424499511719
75.0 35.109352111816406 101.03629302978516
75.0 35.109352111816406 102.76834106445312
75.0 35.109352111816406 104.50039672851562
75.0 35.109352111816406 106.2324447631836
75.0 35.109352111816406 107.9645004272461
75.0 36.742347717285156 94.10809326171875
75.0 36.742347717285156 95.84014129638672
75.0 36.742347717285156 97.57218933105469
75.0 36.742347717285156 99.30424499511719
75.0 36.742347717285156 101.03629302978516
75.0 36.742347717285156 102.76834106445312
75.0 36.742347717285156 104.50039672851562
75.0 36.742347717285156 106.2324447631836
75.0 36.742347717285156 107.9645004272461
75.0 38.37533950805664 92.37603759765625
75.0 38.37533950805664 94.10809326171875
75.0 38.37533950805664 95.84014129638672
75.0 38.37533950805664 97.57218933105469
75.0 38.37533950805664 99.30424499511719
75.0 38.37533950805664 101.03629302978516
75.0 38.37533950805664 102.76834106445312
75.0 38.37533950805664 104.50039672851562
75.0 38.37533950805664 106.2324447631836
75.0 38.37533950805664 107.9645004272461
75.0 40.008331298828125 92.37603759765625
75.0 40.008331298828125 94.10809326171875
75.0 40.008331298828125 95.84014129638672
75.0 40.008331298828125 97.57218933105469
75.0 40.008331298828125 99.30424499511719
75.0 40.008331298828125 101.03629302978516
75.0 40.008331298828125 102.76834106445312
75.0 40.008331298828125 104.50039672851562
75.0 40.008331298828125 106.2324447631836
75.0 40.008331298828125 107.9645004272461
75.0 40.008331298828125 109.69654846191406
75.0 41.641326904296875 92.37603759765625
75.0 41.641326904296875 94.10809326171875
75.0 41.641326904296875 95.84014129638672
75.0 41.641326904296875 97.57218933105469
75.0 41.641326904296875 99.30424499511719
75.0 41.641326904296875 101.03629302978516
75.0 41.641326904296875 102.76834106445312
75.0 41.641326904296875 104.50039672851562
75.0 41.641326904296875 106.2324447631836
75.0 41.641326904296875 107.9645004272461
75.0 43.27431869506836 94.10809326171875
75.0 43.27431869506836 95.84014129638672
75.0 43.27431869506836 97.57218933105469
75.0 43.27431869506836 99.30424499511719
75.0 43.27431869506836 101.03629302978516
75.0 43.27431869506836 102.76834106445312
75.0 43.27431869506836 104.50039672851562
75.0 43.27431869506836 106.2324447631836
75.0 43.27431869506836 107.9645004272461
75.0 44.907310485839844 94.10809326171875
75.0 44.907310485839844 95.84014129638672
75.0 44.907310485839844 97.57218933105469
75.0 44.907310485839844 99.30424499511719
75.0 44.907310485839844 101.03629302978516
75.0 44.907310485839844 102.76834106445312
75.0 44.907310485839844 104.50039672851562
75.0 44.907310485839844 106.2324447631836
75.0 44.907310485839844 107.9645004272461
75.0 46.540306091308594 94.10809326171875
75.0 46.540306091308594 95.84014129638672
75.0 46.540306091308594 97.57218933105469
75.0 46.540306091308594 99.30424499511719
75.0 46.540306091308594 101.03629302978516
75.0 46.540306091308594 102.76834106445312
75.0 46.540306091308594 104.50039672851562
75.0 46.540306091308594 106.2324447631836
75.0 48.17329788208008 95.84014129638672
75.0 48.17329788208008 97.57218933105469
75.0 48.17329788208008 99.30424499511719
75.0 48.17329788208008 101.03629302978516
75.0 48.17329788208008 102.76834106445312
75.0 48.17329788208008 104.50039672851562
75.0 49.80628967285156 97.57218933105469
75.0 49.80628967285156 99.30424499511719
75.0 49.80628967285156 101.03629302978516
75.0 49.80628967285156 102.76834106445312
76.0 33.47636032104492 95.84014129638672
76.0 33.47636032104492 97.57218933105469
76.0 33.47636032104492 99.30424499511719
76.0 33.47636032104492 101.03629302978516
76.0 33.47636032104492 102.76834106445312
76.0 33.47636032104492 104.50039672851562
76.0 33.47636032104492 106.2324447631836
76.0 33.47636032104492 107.9645004272461
76.0 35.109352111816406 94.10809326171875
76.0 35.109352111816406 95.84014129638672
76.0 35.109352111816406 97.57218933105469
76.0 35.109352111816406 99.30424499511719
76.0 35.109352111816406 101.03629302978516
76.0 35.109352111816406 102.76834106445312
76.0 35.109352111816406 104.50039672851562
76.0 35.109352111816406 106.2324447631836
76.0 35.109352111816406 107.9645004272461
76.0 36.742347717285156 92.37603759765625
76.0 36.742347717285156 94.10809326171875
76.0 36.742347717285156 95.84014129638672
76.0 36.742347717285156 97.57218933105469
76.0 36.742347717285156 99.30424499511719
76.0 36.742347717285156 101.03629302978516
76.0 36.742347717285156 102.76834106445312
76.0 36.742347717285156 104.50039672851562
76.0 36.742347717285156 106.2324447631836
76.0 36.742347717285156 107.9645004272461
76.0 36.742347717285156 109.69654846191406
76.0 38.37533950805664 92.37603759765625
76.0 38.37533950805664 94.10809326171875
76.0 38.37533950805664 95.84014129638672
76.0 38.37533950805664 97.57218933105469
76.0 38.37533950805664 99.30424499511719
76.0 38.37533950805664 101.03629302978516
76.0 38.37533950805664 102.76834106445312
76.0 38.37533950805664 104.50039672851562
76.0 38.37533950805664 106.2324447631836
76.0 38.37533950805664 107.9645004272461
76.0 38.37533950805664 109.69654846191406
76.0 40.008331298828125 92.37603759765625
76.0 40.008331298828125 94.10809326171875
76.0 40.008331298828125 95.84014129638672
76.0 40.008331298828125 97.57218933105469
76.0 40.008331298828125 99.30424499511719
76.0 40.008331298828125 101.03629302978516
76.0 40.008331298828125 102.76834106445312
76.0 40.008331298828125 104.50039672851562
76.0 40.008331298828125 106.2324447631836
76.0 40.008331298828125 107.9645004272461
76.0 40.008331298828125 109.69654846191406
76.0 41.641326904296875 92.37603759765625
76.0 41.641326904296875 94.10809326171875
76.0 41.641326904296875 95.84014129638672
76.0 41.641326904296875 97.57218933105469
76.0 41.641326904296875 99.30424499511719
76.0 41.641326904296875 101.03629302978516
76.0 41.641326904296875 102.76834106445312
76.0 41.641326904296875 104.50039672851562
76.0 41.641326904296875 106.2324447631836
76.0 41.641326904296875 107.9645004272461
76.0 41.641326904296875 109.69654846191406
76.0 43.27431869506836 94.10809326171875
76.0 43.27431869506836 95.84014129638672
76.0 43.27431869506836 97.57218933105469
76.0 43.27431869506836 99.30424499511719
76.0 43.27431869506836 101.03629302978516
76.0 43.27431869506836 102.76834106445312
76.0 43.27431869506836 104.50039672851562
76.0 43.27431869506836 106.2324447631836
76.0 43.27431869506836 107.9645004272461
76.0 43.27431869506836 109.69654846191406
76.0 44.907310485839844 94.10809326171875
76.0 44.907310485839844 95.84014129638672
76.0 44.907310485839844 97.57218933105469
76.0 44.907310485839844 99.30424499511719
76.0 44.907310485839844 101.03629302978516
76.0 44.907310485839844 102.76834106445312
76.0 44.907310485839844 104.50039672851562
76.0 44.907310485839844 106.2324447631836
76.0 44.907310485839844 107.9645004272461
76.0 46.540306091308594 94.10809326171875
76.0 46.540306091308594 95.84014129638672
76.0 46.540306091308594 97.57218933105469
76.0 46.540306091308594 99.30424499511719
76.0 46.540306091308594 101.03629302978516
76.0 46.540306091308594 102.76834106445312
76.0 46.540306091308594 104.50039672851562
76.0 46.540306091308594 106.2324447631836
76.0 48.17329788208008 95.84014129638672
76.0 48.17329788208008 97.57218933105469
76.0 48.17329788208008 99.30424499511719
76.0 48.17329788208008 101.03629302978516
76.0 48.17329788208008 102.76834106445312
76.0 48.17329788208008 104.50039672851562
76.0 49.80628967285156 99.30424499511719
76.0 49.80628967285156 101.03629302978516
77.0 31.843366622924805 97.57218933105469
77.0 31.843366622924805 99.30424499511719
77.0 31.843366622924805 101.03629302978516
77.0 31.843366622924805 102.76834106445312
77.0 31.843366622924805 104.50039672851562
77.0 33.47636032104492 94.10809326171875
77.0 33.47636032104492 95.84014129638672
77.0 33.47636032104492 97.57218933105469
77.0 33.47636032104492 99.30424499511719
77.0 33.47636032104492 101.03629302978516
77.0 33.47636032104492 102.76834106445312
77.0 33.47636032104492 104.50039672851562
77.0 33.47636032104492 106.2324447631836
77.0 33.47636032104492 107.9645004272461
77.0 35.109352111816406 92.37603759765625
77.0 35.109352111816406 94.10809326171875
77.0 35.109352111816406 95.84014129638672
77.0 35.109352111816406 97.57218933105469
77.0 35.109352111816406 99.30424499511719
77.0 35.109352111816406 101.03629302978516
77.0 35.109352111816406 102.76834106445312
77.0 35.109352111816406 104.50039672851562
77.0 35.109352111816406 106.2324447631836
77.0 35.109352111816406 107.9645004272461
77.0 35.109352111816406 109.69654846191406
77.0 36.742347717285156 92.37603759765625
77.0 36.742347717285156 94.10809326171875
77.0 36.742347717285156 95.84014129638672
77.0 36.742347717285156 97.57218933105469
77.0 36.742347717285156 99.30424499511719
77.0 36.742347717285156 101.03629302978516
77.0 36.742347717285156 102.76834106445312
77.0 36.742347717285156 104.50039672851562
77.0 36.742347717285156 106.2324447631836
77.0 36.742347717285156 107.9645004272461
77.0 36.742347717285156 109.69654846191406
77.0 38.37533950805664 92.37603759765625
77.0 38.37533950805664 94.10809326171875
77.0 38.37533950805664 95.84014129638672
77.0 38.37533950805664 97.57218933105469
77.0 38.37533950805664 99.30424499511719
77.0 38.37533950805664 101.03629302978516
77.0 38.37533950805664 102.76834106445312
77.0 38.37533950805664 104.50039672851562
77.0 38.37533950805664 106.2324447631836
77.0 38.37533950805664 107.9645004272461
77.0 38.37533950805664 109.69654846191406
77.0 40.008331298828125 92.37603759765625
77.0 40.008331298828125 94.10809326171875
77.0 40.008331298828125 95.84014129638672
77.0 40.008331298828125 97.57218933105469
77.0 40.008331298828125 99.30424499511719
77.0 40.008331298828125 101.03629302978516
77.0 40.008331298828125 102.76834106445312
77.0 40.008331298828125 104.50039672851562
77.0 40.008331298828125 106.2324447631836
77.0 40.008331298828125 107.9645004272461
77.0 40.008331298828125 109.69654846191406
77.0 41.641326904296875 92.37603759765625
77.0 41.641326904296875 94.10809326171875
77.0 41.641326904296875 95.84014129638672
77.0 41.641326904296875 97.57218933105469
77.0 41.641326904296875 99.30424499511719
77.0 41.641326904296875 101.03629302978516
77.0 41.641326904296875 102.76834106445312
77.0 41.641326904296875 104.50039672851562
77.0 41.641326904296875 106.2324447631836
77.0 41.641326904296875 107.9645004272461
77.0 41.641326904296875 109.69654846191406
77.0 43.27431869506836 94.10809326171875
77.0 43.27431869506836 95.84014129638672
77.0 43.27431869506836 97.57218933105469
77.0 43.27431869506836 99.30424499511719
77.0 43.27431869506836 101.03629302978516
77.0 43.27431869506836 102.76834106445312
77.0 43.27431869506836 104.50039672851562
77.0 43.27431869506836 106.2324447631836
77.0 43.27431869506836 107.9645004272461
77.0 43.27431869506836 109.69654846191406
77.0 44.907310485839844 94.10809326171875
77.0 44.907310485839844 95.84014129638672
77.0 44.907310485839844 97.57218933105469
77.0 44.907310485839844 99.30424499511719
77.0 44.907310485839844 101.03629302978516
77.0 44.907310485839844 102.76834106445312
77.0 44.907310485839844 104.50039672851562
77.0 44.907310485839844 106.2324447631836
77.0 44.907310485839844 107.9645004272461
77.0 44.907310485839844 109.69654846191406
77.0 46.540306091308594 94.10809326171875
77.0 46.540306091308594 95.84014129638672
77.0 46.540306091308594 97.57218933105469
77.0 46.540306091308594 99.30424499511719
77.0 46.540306091308594 101.03629302978516
77.0 46.540306091308594 102.76834106445312
77.0 46.540306091308594 104.50039672851562
77.0 46.540306091308594 106.2324447631836
77.0 46.540306091308594 107.9645004272461
77.0 48.17329788208008 95.84014129638672
77.0 48.17329788208008 97.57218933105469
77.0 48.17329788208008 99.30424499511719
77.0 48.17329788208008 101.03629302978516
77.0 48.17329788208008 102.76834106445312
77.0 48.17329788208008 104.50039672851562
77.0 48.17329788208008 106.2324447631836
77.0 49.80628967285156 99.30424499511719
77.0 49.80628967285156 101.03629302978516
78.0 31.843366622924805 94.10809326171875
78.0 31.843366622924805 95.84014129638672
78.0 31.843366622924805 97.57218933105469
78.0 31.843366622924805 99.30424499511719
78.0 31.843366622924805 101.03629302978516
78.0 31.843366622924805 102.76834106445312
78.0 31.843366622924805 104.50039672851562
78.0 31.843366622924805 106.2324447631836
78.0 33.47636032104492 92.37603759765625
78.0 33.47636032104492 94.10809326171875
78.0 33.47636032104492 95.84014129638672
78.0 33.47636032104492 97.57218933105469
78.0 33.47636032104492 99.30424499511719
78.0 33.47636032104492 101.03629302978516
78.0 33.47636032104492 102.76834106445312
78.0 33.47636032104492 104.50039672851562
78.0 33.47636032104492 106.2324447631836
78.0 33.47636032104492 107.9645004272461
78.0 35.109352111816406 92.37603759765625
78.0 35.109352111816406 94.10809326171875
78.0 35.109352111816406 95.84014129638672
78.0 35.109352111816406 97.57218933105469
78.0 35.109352111816406 99.30424499511719
78.0 35.109352111816406 101.03629302978516
78.0 35.109352111816406 102.76834106445312
78.0 35.109352111816406 104.50039672851562
78.0 35.109352111816406 106.2324447631836
78.0 35.109352111816406 107.9645004272461
78.0 35.109352111816406 109.69654846191406
78.0 36.742347717285156 92.37603759765625
78.0 36.742347717285156 94.10809326171875
78.0 36.742347717285156 95.84014129638672
78.0 36.742347717285156 97.57218933105469
78.0 36.742347717285156 99.30424499511719
78.0 36.742347717285156 101.03629302978516
78.0 36.742347717285156 102.76834106445312
78.0 36.742347717285156 104.50039672851562
78.0 36.742347717285156 106.2324447631836
78.0 36.742347717285156 107.9645004272461
78.0 36.742347717285156 109.69654846191406
78.0 38.37533950805664 92.37603759765625
78.0 38.37533950805664 94.10809326171875
78.0 38.37533950805664 95.84014129638672
78.0 38.37533950805664 97.57218933105469
78.0 38.37533950805664 99.30424499511719
78.0 38.37533950805664 101.03629302978516
78.0 38.37533950805664 102.76834106445312
78.0 38.37533950805664 104.50039672851562
78.0 38.37533950805664 106.2324447631836
78.0 38.37533950805664 107.9645004272461
78.0 38.37533950805664 109.69654846191406
78.0 38.37533950805664 111.42860412597656
78.0 40.008331298828125 92.37603759765625
78.0 40.008331298828125 94.10809326171875
78.0 40.008331298828125 95.84014129638672
78.0 40.008331298828125 97.57218933105469
78.0 40.008331298828125 99.30424499511719
78.0 40.008331298828125 101.03629302978516
78.0 40.008331298828125 102.76834106445312
78.0 40.008331298828125 104.50039672851562
78.0 40.008331298828125 106.2324447631836
78.0 40.008331298828125 107.9645004272461
78.0 40.008331298828125 109.69654846191406
78.0 40.008331298828125 111.42860412597656
78.0 41.641326904296875 92.37603759765625
78.0 41.641326904296875 94.10809326171875
78.0 41.641326904296875 95.84014129638672
78.0 41.641326904296875 97.57218933105469
78.0 41.641326904296875 99.30424499511719
78.0 41.641326904296875 101.03629302978516
78.0 41.641326904296875 102.76834106445312
78.0 41.641326904296875 104.50039672851562
78.0 41.641326904296875 106.2324447631836
78.0 41.641326904296875 107.9645004272461
78.0 41.641326904296875 109.69654846191406
78.0 43.27431869506836 94.10809326171875
78.0 43.27431869506836 95.84014129638672
78.0 43.27431869506836 97.57218933105469
78.0 43.27431869506836 99.30424499511719
78.0 43.27431869506836 101.03629302978516
78.0 43.27431869506836 102.76834106445312
78.0 43.27431869506836 104.50039672851562
78.0 43.27431869506836 106.2324447631836
78.0 43.27431869506836 107.9645004272461
78.0 43.27431869506836 109.69654846191406
78.0 44.907310485839844 94.10809326171875
78.0 44.907310485839844 95.84014129638672
78.0 44.907310485839844 97.57218933105469
78.0 44.907310485839844 99.30424499511719
78.0 44.907310485839844 101.03629302978516
78.0 44.907310485839844 102.76834106445312
78.0 44.907310485839844 104.50039672851562
78.0 44.907310485839844 106.2324447631836
78.0 44.907310485839844 107.9645004272461
78.0 44.907310485839844 109.69654846191406
78.0 46.540306091308594 95.84014129638672
78.0 46.540306091308594 97.57218933105469
78.0 46.540306091308594 99.30424499511719
78.0 46.540306091308594 101.03629302978516
78.0 46.540306091308594 102.76834106445312
78.0 46.540306091308594 104.50039672851562
78.0 46.540306091308594 106.2324447631836
78.0 46.540306091308594 107.9645004272461
78.0 48.17329788208008 95.84014129638672
78.0 48.17329788208008 97.57218933105469
78.0 48.17329788208008 99.30424499511719
78.0 48.17329788208008 101.03629302978516
78.0 48.17329788208008 102.76834106445312
78.0 48.17329788208008 104.50039672851562
78.0 48.17329788208008 106.2324447631836
78.0 49.80628967285156 99.30424499511719
78.0 49.80628967285156 101.03629302978516
79.0 31.843366622924805 94.10809326171875
79.0 31.843366622924805 95.84014129638672
79.0 31.843366622924805 97.57218933105469
79.0 31.843366622924805 99.30424499511719
79.0 31.843366622924805 101.03629302978516
79.0 31.843366622924805 102.76834106445312
79.0 31.843366622924805 104.50039672851562
79.0 31.843366622924805 106.2324447631836
79.0 31.843366622924805 107.9645004272461
79.0 33.47636032104492 92.37603759765625
79.0 33.47636032104492 94.10809326171875
79.0 33.47636032104492 95.84014129638672
79.0 33.47636032104492 97.57218933105469
79.0 33.47636032104492 99.30424499511719
79.0 33.47636032104492 101.03629302978516
79.0 33.47636032104492 102.76834106445312
79.0 33.47636032104492 104.50039672851562
79.0 33.47636032104492 106.2324447631836
79.0 33.47636032104492 107.9645004272461
79.0 35.109352111816406 92.37603759765625
79.0 35.109352111816406 94.10809326171875
79.0 35.109352111816406 95.84014129638672
79.0 35.109352111816406 97.57218933105469
79.0 35.109352111816406 99.30424499511719
79.0 35.109352111816406 101.03629302978516
79.0 35.109352111816406 102.76834106445312
79.0 35.109352111816406 104.50039672851562
79.0 35.109352111816406 106.2324447631836
79.0 35.109352111816406 107.9645004272461
79.0 35.109352111816406 109.69654846191406
79.0 36.742347717285156 92.37603759765625
79.0 36.742347717285156 94.10809326171875
79.0 36.742347717285156 95.84014129638672
79.0 36.742347717285156 97.57218933105469
79.0 36.742347717285156 99.30424499511719
79.0 36.742347717285156 101.03629302978516
79.0 36.742347717285156 102.76834106445312
79.0 36.742347717285156 104.50039672851562
79.0 36.742347717285156 106.2324447631836
79.0 36.742347717285156 107.9645004272461
79.0 36.742347717285156 109.69654846191406
79.0 36.742347717285156 111.42860412597656
79.0 38.37533950805664 92.37603759765625
79.0 38.37533950805664 94.10809326171875
79.0 38.37533950805664 95.84014129638672
79.0 38.37533950805664 97.57218933105469
79.0 38.37533950805664 99.30424499511719
79.0 38.37533950805664 101.03629302978516
79.0 38.37533950805664 102.76834106445312
79.0 38.37533950805664 104.50039672851562
79.0 38.37533950805664 106.2324447631836
79.0 38.37533950805664 107.9645004272461
79.0 38.37533950805664 109.69654846191406
79.0 38.37533950805664 111.42860412597656
79.0 40.008331298828125 92.37603759765625
79.0 40.008331298828125 94.10809326171875
79.0 40.008331298828125 95.84014129638672
79.0 40.008331298828125 97.57218933105469
79.0 40.008331298828125 99.30424499511719
79.0 40.008331298828125 101.03629302978516
79.0 40.008331298828125 102.76834106445312
79.0 40.008331298828125 104.50039672851562
79.0 40.008331298828125 106.2324447631836
79.0 40.008331298828125 107.9645004272461
79.0 40.008331298828125 109.69654846191406
79.0 40.008331298828125 111.42860412597656
79.0 41.641326904296875 94.10809326171875
79.0 41.641326904296875 95.84014129638672
79.0 41.641326904296875 97.57218933105469
79.0 41.641326904296875 99.30424499511719
79.0 41.641326904296875 101.03629302978516
79.0 41.641326904296875 102.76834106445312
79.0 41.641326904296875 104.50039672851562
79.0 41.641326904296875 106.2324447631836
79.0 41.641326904296875 107.9645004272461
79.0 41.641326904296875 109.69654846191406
79.0 41.641326904296875 111.42860412597656
79.0 43.27431869506836 94.10809326171875
79.0 43.27431869506836 95.84014129638672
79.0 43.27431869506836 97.57218933105469
79.0 43.27431869506836 99.30424499511719
79.0 43.27431869506836 101.03629302978516
79.0 43.27431869506836 102.76834106445312
79.0 43.27431869506836 104.50039672851562
79.0 43.27431869506836 106.2324447631836
79.0 43.27431869506836 107.9645004272461
79.0 43.27431869506836 109.69654846191406
79.0 44.907310485839844 94.10809326171875
79.0 44.907310485839844 95.84014129638672
79.0 44.907310485839844 97.57218933105469
79.0 44.907310485839844 99.30424499511719
79.0 44.907310485839844 101.03629302978516
79.0 44.907310485839844 102.76834106445312
79.0 44.907310485839844 104.50039672851562
79.0 44.907310485839844 106.2324447631836
79.0 44.907310485839844 107.9645004272461
79.0 44.907310485839844 109.69654846191406
79.0 46.540306091308594 95.84014129638672
79.0 46.540306091308594 97.57218933105469
79.0 46.540306091308594 99.30424499511719
79.0 46.540306091308594 101.03629302978516
79.0 46.540306091308594 102.76834106445312
79.0 46.540306091308594 104.50039672851562
79.0 46.540306091308594 106.2324447631836
79.0 46.540306091308594 107.9645004272461
79.0 48.17329788208008 95.84014129638672
79.0 48.17329788208008 97.57218933105469
79.0 48.17329788208008 99.30424499511719
79.0 48.17329788208008 101.03629302978516
79.0 48.17329788208008 102.76834106445312
79.0 48.17329788208008 104.50039672851562
79.0 48.17329788208008 106.2324447631836
79.0 49.80628967285156 99.30424499511719
79.0 49.80628967285156 101.03629302978516
80.0 30.210372924804688 95.84014129638672
80.0 30.210372924804688 97.57218933105469
80.0 31.843366622924805 94.10809326171875
80.0 31.843366622924805 95.84014129638672
80.0 31.843366622924805 97.57218933105469
80.0 31.843366622924805 99.30424499511719
80.0 31.843366622924805 101.03629302978516
80.0 31.843366622924805 102.76834106445312
80.0 31.843366622924805 104.50039672851562
80.0 31.843366622924805 106.2324447631836
80.0 31.843366622924805 107.9645004272461
80.0 33.47636032104492 94.10809326171875
80.0 33.47636032104492 95.84014129638672
80.0 33.47636032104492 97.57218933105469
80.0 33.47636032104492 99.30424499511719
80.0 33.47636032104492 101.03629302978516
80.0 33.47636032104492 102.76834106445312
80.0 33.47636032104492 104.50039672851562
80.0 33.47636032104492 106.2324447631836
80.0 33.47636032104492 107.9645004272461
80.0 33.47636032104492 109.69654846191406
80.0 35.109352111816406 92.37603759765625
80.0 35.109352111816406 94.10809326171875
80.0 35.109352111816406 95.84014129638672
80.0 35.109352111816406 97.57218933105469
80.0 35.109352111816406 99.30424499511719
80.0 35.109352111816406 101.03629302978516
80.0 35.109352111816406 102.76834106445312
80.0 35.109352111816406 104.50039672851562
80.0 35.109352111816406 106.2324447631836
80.0 35.109352111816406 107.9645004272461
80.0 35.109352111816406 109.69654846191406
80.0 36.742347717285156 92.37603759765625
80.0 36.742347717285156 94.10809326171875
80.0 36.742347717285156 95.84014129638672
80.0 36.742347717285156 97.57218933105469
80.0 36.742347717285156 99.30424499511719
80.0 36.742347717285156 101.03629302978516
80.0 36.742347717285156 102.76834106445312
80.0 36.742347717285156 104.50039672851562
80.0 36.742347717285156 106.2324447631836
80.0 36.742347717285156 107.9645004272461
80.0 36.742347717285156 109.69654846191406
