94.20000457763672 34.80000305175781 90.60000610351562
94.20000457763672 35.400001525878906 90.0
94.20000457763672 35.400001525878906 90.60000610351562
93.60000610351562 34.80000305175781 91.20000457763672
93.60000610351562 34.80000305175781 91.80000305175781
93.60000610351562 35.400001525878906 91.20000457763672
93.60000610351562 35.400001525878906 91.80000305175781
94.20000457763672 34.80000305175781 91.20000457763672
94.20000457763672 34.80000305175781 91.80000305175781
94.20000457763672 35.400001525878906 91.20000457763672
94.20000457763672 35.400001525878906 91.80000305175781
93.60000610351562 34.80000305175781 92.4000015258789
93.60000610351562 34.80000305175781 93.0
93.60000610351562 35.400001525878906 92.4000015258789
93.60000610351562 35.400001525878906 93.0
94.20000457763672 34.80000305175781 92.4000015258789
94.20000457763672 34.80000305175781 93.0
94.20000457763672 35.400001525878906 92.4000015258789
94.20000457763672 35.400001525878906 93.0
93.60000610351562 34.80000305175781 93.60000610351562
93.60000610351562 34.80000305175781 94.20000457763672
93.60000610351562 35.400001525878906 93.60000610351562
93.60000610351562 35.400001525878906 94.20000457763672
94.20000457763672 34.80000305175781 93.60000610351562
94.20000457763672 34.80000305175781 94.20000457763672
94.20000457763672 35.400001525878906 93.60000610351562
94.20000457763672 35.400001525878906 94.20000457763672
93.60000610351562 34.80000305175781 94.80000305175781
93.60000610351562 34.80000305175781 95.4000015258789
93.60000610351562 35.400001525878906 94.80000305175781
93.60000610351562 35.400001525878906 95.4000015258789
94.20000457763672 34.80000305175781 94.80000305175781
94.20000457763672 34.80000305175781 95.4000015258789
94.20000457763672 35.400001525878906 94.80000305175781
94.20000457763672 35.400001525878906 95.4000015258789
93.60000610351562 36.0 89.4000015258789
93.60000610351562 36.60000228881836 89.4000015258789
94.20000457763672 36.0 89.4000015258789
94.20000457763672 36.60000228881836 89.4000015258789
93.60000610351562 36.0 90.0
93.60000610351562 36.0 90.60000610351562
93.60000610351562 36.60000228881836 90.0
93.60000610351562 36.60000228881836 90.60000610351562
94.20000457763672 36.0 90.0
94.20000457763672 36.0 90.60000610351562
94.20000457763672 36.60000228881836 90.0
94.20000457763672 36.60000228881836 90.60000610351562
93.60000610351562 36.0 91.20000457763672
93.60000610351562 36.0 91.80000305175781
93.60000610351562 36.60000228881836 91.20000457763672
93.60000610351562 36.60000228881836 91.80000305175781
94.20000457763672 36.0 91.20000457763672
94.20000457763672 36.0 91.80000305175781
94.20000457763672 36.60000228881836 91.20000457763672
94.20000457763672 36.60000228881836 91.80000305175781
93.60000610351562 36.0 92.4000015258789
93.60000610351562 36.0 93.0
93.60000610351562 36.60000228881836 92.4000015258789
93.60000610351562 36.60000228881836 93.0
94.20000457763672 36.0 92.4000015258789
94.20000457763672 36.0 93.0
94.20000457763672 36.60000228881836 92.4000015258789
94.20000457763672 36.60000228881836 93.0
93.60000610351562 36.0 93.60000610351562
93.60000610351562 36.0 94.20000457763672
93.60000610351562 36.60000228881836 93.60000610351562
93.60000610351562 36.60000228881836 94.20000457763672
94.20000457763672 36.0 93.60000610351562
94.20000457763672 36.0 94.20000457763672
94.20000457763672 36.60000228881836 93.60000610351562
94.20000457763672 36.60000228881836 94.20000457763672
93.60000610351562 36.0 94.80000305175781
93.60000610351562 36.0 95.4000015258789
93.60000610351562 36.60000228881836 94.80000305175781
93.60000610351562 36.60000228881836 95.4000015258789
94.20000457763672 36.0 94.80000305175781
94.20000457763672 36.0 95.4000015258789
94.20000457763672 36.60000228881836 94.80000305175781
94.20000457763672 36.60000228881836 95.4000015258789
93.60000610351562 37.20000076293945 89.4000015258789
93.60000610351562 37.80000305175781 89.4000015258789
94.20000457763672 37.20000076293945 89.4000015258789
94.20000457763672 37.80000305175781 89.4000015258789
93.60000610351562 37.20000076293945 90.0
93.60000610351562 37.20000076293945 90.60000610351562
93.60000610351562 37.80000305175781 90.0
93.60000610351562 37.80000305175781 90.60000610351562
94.20000457763672 37.20000076293945 90.0
94.20000457763672 37.20000076293945 90.60000610351562
94.20000457763672 37.80000305175781 90.0
94.20000457763672 37.80000305175781 90.60000610351562
93.60000610351562 37.20000076293945 91.20000457763672
93.60000610351562 37.20000076293945 91.80000305175781
93.60000610351562 37.80000305175781 91.20000457763672
93.60000610351562 37.80000305175781 91.80000305175781
94.20000457763672 37.20000076293945 91.20000457763672
94.20000457763672 37.20000076293945 91.80000305175781
94.20000457763672 37.80000305175781 91.20000457763672
94.20000457763672 37.80000305175781 91.80000305175781
93.60000610351562 37.20000076293945 92.4000015258789
93.60000610351562 37.20000076293945 93.0
93.60000610351562 37.80000305175781 92.4000015258789
93.60000610351562 37.80000305175781 93.0
94.20000457763672 37.20000076293945 92.4000015258789
94.20000457763672 37.20000076293945 93.0
94.20000457763672 37.80000305175781 92.4000015258789
94.20000457763672 37.80000305175781 93.0
93.60000610351562 37.20000076293945 93.60000610351562
93.60000610351562 37.20000076293945 94.20000457763672
93.60000610351562 37.80000305175781 93.60000610351562
93.60000610351562 37.80000305175781 94.20000457763672
94.20000457763672 37.20000076293945 93.60000610351562
94.20000457763672 37.20000076293945 94.20000457763672
94.20000457763672 37.80000305175781 93.60000610351562
94.20000457763672 37.80000305175781 94.20000457763672
93.60000610351562 37.20000076293945 94.80000305175781
93.60000610351562 37.20000076293945 95.4000015258789
93.60000610351562 37.80000305175781 94.80000305175781
93.60000610351562 37.80000305175781 95.4000015258789
94.20000457763672 37.20000076293945 94.80000305175781
94.20000457763672 37.20000076293945 95.4000015258789
94.20000457763672 37.80000305175781 94.80000305175781
94.20000457763672 37.80000305175781 95.4000015258789
94.80000305175781 28.80000114440918 89.4000015258789
94.80000305175781 29.400001525878906 89.4000015258789
95.4000015258789 28.80000114440918 89.4000015258789
95.4000015258789 29.400001525878906 89.4000015258789
94.80000305175781 28.80000114440918 90.0
94.80000305175781 28.80000114440918 90.60000610351562
94.80000305175781 29.400001525878906 90.0
94.80000305175781 29.400001525878906 90.60000610351562
95.4000015258789 28.80000114440918 90.0
95.4000015258789 28.80000114440918 90.60000610351562
95.4000015258789 29.400001525878906 90.0
95.4000015258789 29.400001525878906 90.60000610351562
94.80000305175781 28.80000114440918 91.20000457763672
94.80000305175781 28.80000114440918 91.80000305175781
94.80000305175781 29.400001525878906 91.20000457763672
94.80000305175781 29.400001525878906 91.80000305175781
95.4000015258789 28.80000114440918 91.20000457763672
95.4000015258789 28.80000114440918 91.80000305175781
95.4000015258789 29.400001525878906 91.20000457763672
95.4000015258789 29.400001525878906 91.80000305175781
94.80000305175781 28.80000114440918 92.4000015258789
94.80000305175781 28.80000114440918 93.0
94.80000305175781 29.400001525878906 92.4000015258789
94.80000305175781 29.400001525878906 93.0
95.4000015258789 28.80000114440918 92.4000015258789
95.4000015258789 28.80000114440918 93.0
95.4000015258789 29.400001525878906 92.4000015258789
95.4000015258789 29.400001525878906 93.0
94.80000305175781 28.80000114440918 93.60000610351562
94.80000305175781 28.80000114440918 94.20000457763672
94.80000305175781 29.400001525878906 93.60000610351562
94.80000305175781 29.400001525878906 94.20000457763672
95.4000015258789 28.80000114440918 93.60000610351562
95.4000015258789 28.80000114440918 94.20000457763672
95.4000015258789 29.400001525878906 93.60000610351562
95.4000015258789 29.400001525878906 94.20000457763672
94.80000305175781 28.80000114440918 94.80000305175781
94.80000305175781 28.80000114440918 95.4000015258789
94.80000305175781 29.400001525878906 94.80000305175781
94.80000305175781 29.400001525878906 95.4000015258789
95.4000015258789 28.80000114440918 94.80000305175781
95.4000015258789 28.80000114440918 95.4000015258789
95.4000015258789 29.400001525878906 94.80000305175781
95.4000015258789 29.400001525878906 95.4000015258789
94.80000305175781 30.000001907348633 89.4000015258789
94.80000305175781 30.600000381469727 89.4000015258789
95.4000015258789 30.000001907348633 89.4000015258789
95.4000015258789 30.600000381469727 89.4000015258789
94.80000305175781 30.000001907348633 90.0
94.80000305175781 30.000001907348633 90.60000610351562
94.80000305175781 30.600000381469727 90.0
94.80000305175781 30.600000381469727 90.60000610351562
95.4000015258789 30.000001907348633 90.0
95.4000015258789 30.000001907348633 90.60000610351562
95.4000015258789 30.600000381469727 90.0
95.4000015258789 30.600000381469727 90.60000610351562
94.80000305175781 30.000001907348633 91.20000457763672
94.80000305175781 30.000001907348633 91.80000305175781
94.80000305175781 30.600000381469727 91.20000457763672
94.80000305175781 30.600000381469727 91.80000305175781
95.4000015258789 30.000001907348633 91.20000457763672
95.4000015258789 30.000001907348633 91.80000305175781
95.4000015258789 30.600000381469727 91.20000457763672
95.4000015258789 30.600000381469727 91.80000305175781
94.80000305175781 30.000001907348633 92.4000015258789
94.80000305175781 30.000001907348633 93.0
94.80000305175781 30.600000381469727 92.4000015258789
94.80000305175781 30.600000381469727 93.0
95.4000015258789 30.000001907348633 92.4000015258789
95.4000015258789 30.000001907348633 93.0
95.4000015258789 30.600000381469727 92.4000015258789
95.4000015258789 30.600000381469727 93.0
94.80000305175781 30.000001907348633 93.60000610351562
94.80000305175781 30.000001907348633 94.20000457763672
94.80000305175781 30.600000381469727 93.60000610351562
94.80000305175781 30.600000381469727 94.20000457763672
95.4000015258789 30.000001907348633 93.60000610351562
95.4000015258789 30.000001907348633 94.20000457763672
95.4000015258789 30.600000381469727 93.60000610351562
95.4000015258789 30.600000381469727 94.20000457763672
94.80000305175781 30.000001907348633 94.80000305175781
94.80000305175781 30.000001907348633 95.4000015258789
94.80000305175781 30.600000381469727 94.80000305175781
94.80000305175781 30.600000381469727 95.4000015258789
95.4000015258789 30.000001907348633 94.80000305175781
95.4000015258789 30.000001907348633 95.4000015258789
95.4000015258789 30.600000381469727 94.80000305175781
95.4000015258789 30.600000381469727 95.4000015258789
94.80000305175781 31.200000762939453 89.4000015258789
94.80000305175781 31.80000114440918 89.4000015258789
95.4000015258789 31.200000762939453 89.4000015258789
95.4000015258789 31.80000114440918 89.4000015258789
94.80000305175781 31.200000762939453 90.0
94.80000305175781 31.200000762939453 90.60000610351562
94.80000305175781 31.80000114440918 90.0
94.80000305175781 31.80000114440918 90.60000610351562
95.4000015258789 31.200000762939453 90.0
95.4000015258789 31.200000762939453 90.60000610351562
95.4000015258789 31.80000114440918 90.0
95.4000015258789 31.80000114440918 90.60000610351562
94.80000305175781 31.200000762939453 91.20000457763672
94.80000305175781 31.200000762939453 91.80000305175781
94.80000305175781 31.80000114440918 91.20000457763672
94.80000305175781 31.80000114440918 91.80000305175781
95.4000015258789 31.200000762939453 91.20000457763672
95.4000015258789 31.200000762939453 91.80000305175781
95.4000015258789 31.80000114440918 91.20000457763672
95.4000015258789 31.80000114440918 91.80000305175781
94.80000305175781 31.200000762939453 92.4000015258789
94.80000305175781 31.200000762939453 93.0
94.80000305175781 31.80000114440918 92.4000015258789
94.80000305175781 31.80000114440918 93.0
95.4000015258789 31.200000762939453 92.4000015258789
95.4000015258789 31.200000762939453 93.0
95.4000015258789 31.80000114440918 92.4000015258789
95.4000015258789 31.80000114440918 93.0
94.80000305175781 31.200000762939453 93.60000610351562
94.80000305175781 31.200000762939453 94.20000457763672
94.80000305175781 31.80000114440918 93.60000610351562
94.80000305175781 31.80000114440918 94.20000457763672
95.4000015258789 31.200000762939453 93.60000610351562
95.4000015258789 31.200000762939453 94.20000457763672
95.4000015258789 31.80000114440918 93.60000610351562
95.4000015258789 31.80000114440918 94.20000457763672
94.80000305175781 31.200000762939453 94.80000305175781
94.80000305175781 31.200000762939453 95.4000015258789
94.80000305175781 31.80000114440918 94.80000305175781
94.80000305175781 31.80000114440918 95.4000015258789
95.4000015258789 31.200000762939453 94.80000305175781
95.4000015258789 31.200000762939453 95.4000015258789
95.4000015258789 31.80000114440918 94.80000305175781
95.4000015258789 31.80000114440918 95.4000015258789
94.80000305175781 32.400001525878906 89.4000015258789
94.80000305175781 33.0 89.4000015258789
95.4000015258789 32.400001525878906 89.4000015258789
95.4000015258789 33.0 89.4000015258789
94.80000305175781 32.400001525878906 90.0
94.80000305175781 32.400001525878906 90.60000610351562
94.80000305175781 33.0 90.0
94.80000305175781 33.0 90.60000610351562
95.4000015258789 32.400001525878906 90.0
95.4000015258789 32.400001525878906 90.60000610351562
95.4000015258789 33.0 90.0
95.4000015258789 33.0 90.60000610351562
94.80000305175781 32.400001525878906 91.20000457763672
94.80000305175781 32.400001525878906 91.80000305175781
94.80000305175781 33.0 91.20000457763672
94.80000305175781 33.0 91.80000305175781
95.4000015258789 32.400001525878906 91.20000457763672
95.4000015258789 32.400001525878906 91.80000305175781
95.4000015258789 33.0 91.20000457763672
95.4000015258789 33.0 91.80000305175781
94.80000305175781 32.400001525878906 92.4000015258789
94.80000305175781 32.400001525878906 93.0
94.80000305175781 33.0 92.4000015258789
94.80000305175781 33.0 93.0
95.4000015258789 32.400001525878906 92.4000015258789
95.4000015258789 32.400001525878906 93.0
95.4000015258789 33.0 92.4000015258789
95.4000015258789 33.0 93.0
94.80000305175781 32.400001525878906 93.60000610351562
94.80000305175781 32.400001525878906 94.20000457763672
94.80000305175781 33.0 93.60000610351562
94.80000305175781 33.0 94.20000457763672
95.4000015258789 32.400001525878906 93.60000610351562
95.4000015258789 32.400001525878906 94.20000457763672
95.4000015258789 33.0 93.60000610351562
95.4000015258789 33.0 94.20000457763672
94.80000305175781 32.400001525878906 94.80000305175781
94.80000305175781 32.400001525878906 95.4000015258789
94.80000305175781 33.0 94.80000305175781
94.80000305175781 33.0 95.4000015258789
95.4000015258789 32.400001525878906 94.80000305175781
95.4000015258789 32.400001525878906 95.4000015258789
95.4000015258789 33.0 94.80000305175781
95.4000015258789 33.0 95.4000015258789
94.80000305175781 33.60000228881836 89.4000015258789
94.80000305175781 34.20000076293945 89.4000015258789
95.4000015258789 33.60000228881836 89.4000015258789
95.4000015258789 34.20000076293945 89.4000015258789
94.80000305175781 33.60000228881836 90.0
94.80000305175781 33.60000228881836 90.60000610351562
94.80000305175781 34.20000076293945 90.0
94.80000305175781 34.20000076293945 90.60000610351562
95.4000015258789 33.60000228881836 90.0
95.4000015258789 33.60000228881836 90.60000610351562
95.4000015258789 34.20000076293945 90.0
95.4000015258789 34.20000076293945 90.60000610351562
94.80000305175781 33.60000228881836 91.20000457763672
94.80000305175781 33.60000228881836 91.80000305175781
94.80000305175781 34.20000076293945 91.20000457763672
94.80000305175781 34.20000076293945 91.80000305175781
95.4000015258789 33.60000228881836 91.20000457763672
95.4000015258789 33.60000228881836 91.80000305175781
95.4000015258789 34.20000076293945 91.20000457763672
95.4000015258789 34.20000076293945 91.80000305175781
94.80000305175781 33.60000228881836 92.4000015258789
94.80000305175781 33.60000228881836 93.0
94.80000305175781 34.20000076293945 92.4000015258789
94.80000305175781 34.20000076293945 93.0
95.4000015258789 33.60000228881836 92.4000015258789
95.4000015258789 33.60000228881836 93.0
95.4000015258789 34.20000076293945 92.4000015258789
95.4000015258789 34.20000076293945 93.0
94.80000305175781 33.60000228881836 93.60000610351562
94.80000305175781 33.60000228881836 94.20000457763672
94.80000305175781 34.20000076293945 93.60000610351562
94.80000305175781 34.20000076293945 94.20000457763672
95.4000015258789 33.60000228881836 93.60000610351562
95.4000015258789 33.60000228881836 94.20000457763672
95.4000015258789 34.20000076293945 93.60000610351562
95.4000015258789 34.20000076293945 94.20000457763672
94.80000305175781 33.60000228881836 94.80000305175781
94.80000305175781 33.60000228881836 95.4000015258789
94.80000305175781 34.20000076293945 94.80000305175781
94.80000305175781 34.20000076293945 95.4000015258789
95.4000015258789 33.60000228881836 94.80000305175781
95.4000015258789 33.60000228881836 95.4000015258789
95.4000015258789 34.20000076293945 94.80000305175781
95.4000015258789 34.20000076293945 95.4000015258789
94.80000305175781 34.80000305175781 89.4000015258789
94.80000305175781 35.400001525878906 89.4000015258789
95.4000015258789 34.80000305175781 89.4000015258789
95.4000015258789 35.400001525878906 89.4000015258789
94.80000305175781 34.80000305175781 90.0
94.80000305175781 34.80000305175781 90.60000610351562
94.80000305175781 35.400001525878906 90.0
94.80000305175781 35.400001525878906 90.60000610351562
95.4000015258789 34.80000305175781 90.0
95.4000015258789 34.80000305175781 90.60000610351562
95.4000015258789 35.400001525878906 90.0
95.4000015258789 35.400001525878906 90.60000610351562
94.80000305175781 34.80000305175781 91.20000457763672
94.80000305175781 34.80000305175781 91.80000305175781
94.80000305175781 35.400001525878906 91.20000457763672
94.80000305175781 35.400001525878906 91.80000305175781
95.4000015258789 34.80000305175781 91.20000457763672
95.4000015258789 34.80000305175781 91.80000305175781
95.4000015258789 35.400001525878906 91.20000457763672
95.4000015258789 35.400001525878906 91.80000305175781
94.80000305175781 34.80000305175781 92.4000015258789
94.80000305175781 34.80000305175781 93.0
94.80000305175781 35.400001525878906 92.4000015258789
94.80000305175781 35.400001525878906 93.0
95.4000015258789 34.80000305175781 92.4000015258789
95.4000015258789 34.80000305175781 93.0
95.4000015258789 35.400001525878906 92.4000015258789
95.4000015258789 35.400001525878906 93.0
94.80000305175781 34.80000305175781 93.60000610351562
94.80000305175781 34.80000305175781 94.20000457763672
94.80000305175781 35.400001525878906 93.60000610351562
94.80000305175781 35.400001525878906 94.20000457763672
95.4000015258789 34.80000305175781 93.60000610351562
95.4000015258789 34.80000305175781 94.20000457763672
95.4000015258789 35.400001525878906 93.60000610351562
95.4000015258789 35.400001525878906 94.20000457763672
94.80000305175781 34.80000305175781 94.80000305175781
94.80000305175781 34.80000305175781 95.4000015258789
94.80000305175781 35.400001525878906 94.80000305175781
94.80000305175781 35.400001525878906 95.4000015258789
95.4000015258789 34.80000305175781 94.80000305175781
95.4000015258789 34.80000305175781 95.4000015258789
95.4000015258789 35.400001525878906 94.80000305175781
95.4000015258789 35.400001525878906 95.4000015258789
94.80000305175781 36.0 89.4000015258789
94.80000305175781 36.60000228881836 89.4000015258789
95.4000015258789 36.0 89.4000015258789
95.4000015258789 36.60000228881836 89.4000015258789
94.80000305175781 36.0 90.0
94.80000305175781 36.0 90.60000610351562
94.80000305175781 36.60000228881836 90.0
94.80000305175781 36.60000228881836 90.60000610351562
95.4000015258789 36.0 90.0
95.4000015258789 36.0 90.60000610351562
95.4000015258789 36.60000228881836 90.0
95.4000015258789 36.60000228881836 90.60000610351562
94.80000305175781 36.0 91.20000457763672
94.80000305175781 36.0 91.80000305175781
94.80000305175781 36.60000228881836 91.20000457763672
94.80000305175781 36.60000228881836 91.80000305175781
95.4000015258789 36.0 91.20000457763672
95.4000015258789 36.0 91.80000305175781
95.4000015258789 36.60000228881836 91.20000457763672
95.4000015258789 36.60000228881836 91.80000305175781
94.80000305175781 36.0 92.4000015258789
94.80000305175781 36.0 93.0
94.80000305175781 36.60000228881836 92.4000015258789
94.80000305175781 36.60000228881836 93.0
95.4000015258789 36.0 92.4000015258789
95.4000015258789 36.0 93.0
95.4000015258789 36.60000228881836 92.4000015258789
95.4000015258789 36.60000228881836 93.0
94.80000305175781 36.0 93.60000610351562
94.80000305175781 36.0 94.20000457763672
94.80000305175781 36.60000228881836 93.60000610351562
94.80000305175781 36.60000228881836 94.20000457763672
95.4000015258789 36.0 93.60000610351562
95.4000015258789 36.0 94.20000457763672
95.4000015258789 36.60000228881836 93.60000610351562
95.4000015258789 36.60000228881836 94.20000457763672
94.80000305175781 36.0 94.80000305175781
94.80000305175781 36.0 95.4000015258789
94.80000305175781 36.60000228881836 94.80000305175781
94.80000305175781 36.60000228881836 95.4000015258789
95.4000015258789 36.0 94.80000305175781
95.4000015258789 36.0 95.4000015258789
95.4000015258789 36.60000228881836 94.80000305175781
95.4000015258789 36.60000228881836 95.4000015258789
94.80000305175781 37.20000076293945 89.4000015258789
94.80000305175781 37.80000305175781 89.4000015258789
95.4000015258789 37.20000076293945 89.4000015258789
95.4000015258789 37.80000305175781 89.4000015258789
94.80000305175781 37.20000076293945 90.0
94.80000305175781 37.20000076293945 90.60000610351562
94.80000305175781 37.80000305175781 90.0
94.80000305175781 37.80000305175781 90.60000610351562
95.4000015258789 37.20000076293945 90.0
95.4000015258789 37.20000076293945 90.60000610351562
95.4000015258789 37.80000305175781 90.0
95.4000015258789 37.80000305175781 90.60000610351562
94.80000305175781 37.20000076293945 91.20000457763672
94.80000305175781 37.20000076293945 91.80000305175781
94.80000305175781 37.80000305175781 91.20000457763672
94.80000305175781 37.80000305175781 91.80000305175781
95.4000015258789 37.20000076293945 91.20000457763672
95.4000015258789 37.20000076293945 91.80000305175781
95.4000015258789 37.80000305175781 91.20000457763672
95.4000015258789 37.80000305175781 91.80000305175781
94.80000305175781 37.20000076293945 92.4000015258789
94.80000305175781 37.20000076293945 93.0
94.80000305175781 37.80000305175781 92.4000015258789
94.80000305175781 37.80000305175781 93.0
95.4000015258789 37.20000076293945 92.4000015258789
95.4000015258789 37.20000076293945 93.0
95.4000015258789 37.80000305175781 92.4000015258789
95.4000015258789 37.80000305175781 93.0
94.80000305175781 37.20000076293945 93.60000610351562
94.80000305175781 37.20000076293945 94.20000457763672
94.80000305175781 37.80000305175781 93.60000610351562
94.80000305175781 37.80000305175781 94.20000457763672
95.4000015258789 37.20000076293945 93.60000610351562
95.4000015258789 37.20000076293945 94.20000457763672
95.4000015258789 37.80000305175781 93.60000610351562
95.4000015258789 37.80000305175781 94.20000457763672
94.80000305175781 37.20000076293945 94.80000305175781
94.80000305175781 37.20000076293945 95.4000015258789
94.80000305175781 37.80000305175781 94.80000305175781
94.80000305175781 37.80000305175781 95.4000015258789
95.4000015258789 37.20000076293945 94.80000305175781
95.4000015258789 37.20000076293945 95.4000015258789
95.4000015258789 37.80000305175781 94.80000305175781
95.4000015258789 37.80000305175781 95.4000015258789
89.4000015258789 28.80000114440918 96.0
89.4000015258789 28.80000114440918 96.60000610351562
89.4000015258789 29.400001525878906 96.0
89.4000015258789 29.400001525878906 96.60000610351562
89.4000015258789 28.80000114440918 97.20000457763672
89.4000015258789 28.80000114440918 97.80000305175781
89.4000015258789 29.400001525878906 97.20000457763672
89.4000015258789 29.400001525878906 97.80000305175781
89.4000015258789 28.80000114440918 98.4000015258789
89.4000015258789 28.80000114440918 99.00000762939453
89.4000015258789 29.400001525878906 98.4000015258789
89.4000015258789 29.400001525878906 99.00000762939453
89.4000015258789 28.80000114440918 99.60000610351562
89.4000015258789 28.80000114440918 100.20000457763672
89.4000015258789 29.400001525878906 99.60000610351562
89.4000015258789 29.400001525878906 100.20000457763672
89.4000015258789 28.80000114440918 100.80000305175781
89.4000015258789 28.80000114440918 101.4000015258789
89.4000015258789 29.400001525878906 100.80000305175781
89.4000015258789 29.400001525878906 101.4000015258789
89.4000015258789 28.80000114440918 102.00000762939453
89.4000015258789 28.80000114440918 102.60000610351562
89.4000015258789 29.400001525878906 102.00000762939453
89.4000015258789 29.400001525878906 102.60000610351562
89.4000015258789 28.80000114440918 103.20000457763672
89.4000015258789 28.80000114440918 103.80000305175781
89.4000015258789 29.400001525878906 103.20000457763672
89.4000015258789 29.400001525878906 103.80000305175781
89.4000015258789 28.80000114440918 104.4000015258789
89.4000015258789 28.80000114440918 105.00000762939453
89.4000015258789 29.400001525878906 104.4000015258789
89.4000015258789 29.400001525878906 105.00000762939453
89.4000015258789 30.000001907348633 96.0
89.4000015258789 30.000001907348633 96.60000610351562
89.4000015258789 30.600000381469727 96.0
89.4000015258789 30.600000381469727 96.60000610351562
89.4000015258789 30.000001907348633 97.20000457763672
89.4000015258789 30.000001907348633 97.80000305175781
89.4000015258789 30.600000381469727 97.20000457763672
89.4000015258789 30.600000381469727 97.80000305175781
89.4000015258789 30.000001907348633 98.4000015258789
89.4000015258789 30.000001907348633 99.00000762939453
89.4000015258789 30.600000381469727 98.4000015258789
89.4000015258789 30.600000381469727 99.00000762939453
89.4000015258789 30.000001907348633 99.60000610351562
89.4000015258789 30.000001907348633 100.20000457763672
89.4000015258789 30.600000381469727 99.60000610351562
89.4000015258789 30.600000381469727 100.20000457763672
89.4000015258789 30.000001907348633 100.80000305175781
89.4000015258789 30.000001907348633 101.4000015258789
89.4000015258789 30.600000381469727 100.80000305175781
89.4000015258789 30.600000381469727 101.4000015258789
89.4000015258789 30.000001907348633 102.00000762939453
89.4000015258789 30.000001907348633 102.60000610351562
89.4000015258789 30.600000381469727 102.00000762939453
89.4000015258789 30.600000381469727 102.60000610351562
89.4000015258789 30.000001907348633 103.20000457763672
89.4000015258789 30.000001907348633 103.80000305175781
89.4000015258789 30.600000381469727 103.20000457763672
89.4000015258789 30.600000381469727 103.80000305175781
89.4000015258789 30.000001907348633 104.4000015258789
89.4000015258789 30.000001907348633 105.00000762939453
89.4000015258789 30.600000381469727 104.4000015258789
89.4000015258789 30.600000381469727 105.00000762939453
89.4000015258789 31.200000762939453 96.0
89.4000015258789 31.200000762939453 96.60000610351562
89.4000015258789 31.80000114440918 96.0
89.4000015258789 31.80000114440918 96.60000610351562
89.4000015258789 31.200000762939453 97.20000457763672
89.4000015258789 31.200000762939453 97.80000305175781
89.4000015258789 31.80000114440918 97.20000457763672
89.4000015258789 31.80000114440918 97.80000305175781
89.4000015258789 31.200000762939453 98.4000015258789
89.4000015258789 31.200000762939453 99.00000762939453
89.4000015258789 31.80000114440918 98.4000015258789
89.4000015258789 31.80000114440918 99.00000762939453
89.4000015258789 31.200000762939453 99.60000610351562
89.4000015258789 31.200000762939453 100.20000457763672
89.4000015258789 31.80000114440918 99.60000610351562
89.4000015258789 31.80000114440918 100.20000457763672
89.4000015258789 31.200000762939453 100.80000305175781
89.4000015258789 31.200000762939453 101.4000015258789
89.4000015258789 31.80000114440918 100.80000305175781
89.4000015258789 31.80000114440918 101.4000015258789
89.4000015258789 31.200000762939453 102.00000762939453
89.4000015258789 31.200000762939453 102.60000610351562
89.4000015258789 31.80000114440918 102.00000762939453
89.4000015258789 31.80000114440918 102.60000610351562
89.4000015258789 31.200000762939453 103.20000457763672
89.4000015258789 31.200000762939453 103.80000305175781
89.4000015258789 31.80000114440918 103.20000457763672
89.4000015258789 31.80000114440918 103.80000305175781
89.4000015258789 31.200000762939453 104.4000015258789
89.4000015258789 31.200000762939453 105.00000762939453
89.4000015258789 31.80000114440918 104.4000015258789
89.4000015258789 31.80000114440918 105.00000762939453
89.4000015258789 32.400001525878906 96.0
89.4000015258789 32.400001525878906 96.60000610351562
89.4000015258789 33.0 96.0
89.4000015258789 33.0 96.60000610351562
89.4000015258789 32.400001525878906 97.20000457763672
89.4000015258789 32.400001525878906 97.80000305175781
89.4000015258789 33.0 97.20000457763672
89.4000015258789 33.0 97.80000305175781
89.4000015258789 32.400001525878906 98.4000015258789
89.4000015258789 32.400001525878906 99.00000762939453
89.4000015258789 33.0 98.4000015258789
89.4000015258789 33.0 99.00000762939453
89.4000015258789 32.400001525878906 99.60000610351562
89.4000015258789 32.400001525878906 100.20000457763672
89.4000015258789 33.0 99.60000610351562
89.4000015258789 33.0 100.20000457763672
89.4000015258789 32.400001525878906 100.80000305175781
89.4000015258789 32.400001525878906 101.4000015258789
89.4000015258789 33.0 100.80000305175781
89.4000015258789 33.0 101.4000015258789
89.4000015258789 32.400001525878906 102.00000762939453
89.4000015258789 32.400001525878906 102.60000610351562
89.4000015258789 33.0 102.00000762939453
89.4000015258789 33.0 102.60000610351562
89.4000015258789 32.400001525878906 103.20000457763672
89.4000015258789 32.400001525878906 103.80000305175781
89.4000015258789 33.0 103.20000457763672
89.4000015258789 33.0 103.80000305175781
89.4000015258789 32.400001525878906 104.4000015258789
89.4000015258789 32.400001525878906 105.00000762939453
89.4000015258789 33.0 104.4000015258789
89.4000015258789 33.0 105.00000762939453
89.4000015258789 33.60000228881836 96.0
89.4000015258789 33.60000228881836 96.60000610351562
89.4000015258789 34.20000076293945 96.0
89.4000015258789 34.20000076293945 96.60000610351562
89.4000015258789 33.60000228881836 97.20000457763672
89.4000015258789 33.60000228881836 97.80000305175781
89.4000015258789 34.20000076293945 97.20000457763672
89.4000015258789 34.20000076293945 97.80000305175781
89.4000015258789 33.60000228881836 98.4000015258789
89.4000015258789 33.60000228881836 99.00000762939453
89.4000015258789 34.20000076293945 98.4000015258789
89.4000015258789 34.20000076293945 99.00000762939453
89.4000015258789 33.60000228881836 99.60000610351562
89.4000015258789 33.60000228881836 100.20000457763672
89.4000015258789 34.20000076293945 99.60000610351562
89.4000015258789 34.20000076293945 100.20000457763672
89.4000015258789 33.60000228881836 100.80000305175781
89.4000015258789 33.60000228881836 101.4000015258789
89.4000015258789 34.20000076293945 100.80000305175781
89.4000015258789 34.20000076293945 101.4000015258789
89.4000015258789 33.60000228881836 102.00000762939453
89.4000015258789 33.60000228881836 102.60000610351562
89.4000015258789 34.20000076293945 102.00000762939453
89.4000015258789 34.20000076293945 102.60000610351562
89.4000015258789 33.60000228881836 103.20000457763672
89.4000015258789 33.60000228881836 103.80000305175781
89.4000015258789 34.20000076293945 103.20000457763672
89.4000015258789 34.20000076293945 103.80000305175781
89.4000015258789 33.60000228881836 104.4000015258789
89.4000015258789 33.60000228881836 105.00000762939453
89.4000015258789 34.20000076293945 104.4000015258789
89.4000015258789 34.20000076293945 105.00000762939453
89.4000015258789 34.80000305175781 96.0
89.4000015258789 34.80000305175781 96.60000610351562
89.4000015258789 35.400001525878906 96.0
89.4000015258789 35.400001525878906 96.60000610351562
89.4000015258789 34.80000305175781 97.20000457763672
89.4000015258789 34.80000305175781 97.80000305175781
89.4000015258789 35.400001525878906 97.20000457763672
89.4000015258789 35.400001525878906 97.80000305175781
89.4000015258789 34.80000305175781 98.4000015258789
89.4000015258789 34.80000305175781 99.00000762939453
89.4000015258789 35.400001525878906 98.4000015258789
89.4000015258789 35.400001525878906 99.00000762939453
89.4000015258789 34.80000305175781 99.60000610351562
89.4000015258789 34.80000305175781 100.20000457763672
89.4000015258789 35.400001525878906 99.60000610351562
89.4000015258789 35.400001525878906 100.20000457763672
89.4000015258789 34.80000305175781 100.80000305175781
89.4000015258789 34.80000305175781 101.4000015258789
89.4000015258789 35.400001525878906 100.80000305175781
89.4000015258789 35.400001525878906 101.4000015258789
89.4000015258789 34.80000305175781 102.00000762939453
89.4000015258789 34.80000305175781 102.60000610351562
89.4000015258789 35.400001525878906 102.00000762939453
89.4000015258789 35.400001525878906 102.60000610351562
89.4000015258789 34.80000305175781 103.20000457763672
89.4000015258789 34.80000305175781 103.80000305175781
89.4000015258789 35.400001525878906 103.20000457763672
89.4000015258789 35.400001525878906 103.80000305175781
89.4000015258789 34.80000305175781 104.4000015258789
89.4000015258789 34.80000305175781 105.00000762939453
89.4000015258789 35.400001525878906 104.4000015258789
89.4000015258789 35.400001525878906 105.00000762939453
89.4000015258789 36.0 96.0
89.4000015258789 36.0 96.60000610351562
89.4000015258789 36.60000228881836 96.0
89.4000015258789 36.60000228881836 96.60000610351562
89.4000015258789 36.0 97.20000457763672
89.4000015258789 36.0 97.80000305175781
89.4000015258789 36.60000228881836 97.20000457763672
89.4000015258789 36.60000228881836 97.80000305175781
89.4000015258789 36.0 98.4000015258789
89.4000015258789 36.0 99.00000762939453
89.4000015258789 36.60000228881836 98.4000015258789
89.4000015258789 36.60000228881836 99.00000762939453
89.4000015258789 36.0 99.60000610351562
89.4000015258789 36.0 100.20000457763672
89.4000015258789 36.60000228881836 99.60000610351562
89.4000015258789 36.60000228881836 100.20000457763672
89.4000015258789 36.0 100.80000305175781
89.4000015258789 36.0 101.4000015258789
89.4000015258789 36.60000228881836 100.80000305175781
89.4000015258789 36.60000228881836 101.4000015258789
89.4000015258789 36.0 102.00000762939453
89.4000015258789 36.0 102.60000610351562
89.4000015258789 36.60000228881836 102.00000762939453
89.4000015258789 36.60000228881836 102.60000610351562
89.4000015258789 36.0 103.20000457763672
89.4000015258789 36.0 103.80000305175781
89.4000015258789 36.60000228881836 103.20000457763672
89.4000015258789 36.60000228881836 103.80000305175781
89.4000015258789 36.0 104.4000015258789
89.4000015258789 36.0 105.00000762939453
89.4000015258789 36.60000228881836 104.4000015258789
89.4000015258789 36.60000228881836 105.00000762939453
89.4000015258789 37.20000076293945 96.0
89.4000015258789 37.20000076293945 96.60000610351562
89.4000015258789 37.80000305175781 96.0
89.4000015258789 37.80000305175781 96.60000610351562
89.4000015258789 37.20000076293945 97.20000457763672
89.4000015258789 37.20000076293945 97.80000305175781
89.4000015258789 37.80000305175781 97.20000457763672
89.4000015258789 37.80000305175781 97.80000305175781
89.4000015258789 37.20000076293945 98.4000015258789
89.4000015258789 37.20000076293945 99.00000762939453
89.4000015258789 37.80000305175781 98.4000015258789
89.4000015258789 37.80000305175781 99.00000762939453
89.4000015258789 37.20000076293945 99.60000610351562
89.4000015258789 37.20000076293945 100.20000457763672
89.4000015258789 37.80000305175781 99.60000610351562
89.4000015258789 37.80000305175781 100.20000457763672
89.4000015258789 37.20000076293945 100.80000305175781
89.4000015258789 37.20000076293945 101.4000015258789
89.4000015258789 37.80000305175781 100.80000305175781
89.4000015258789 37.80000305175781 101.4000015258789
89.4000015258789 37.20000076293945 102.00000762939453
89.4000015258789 37.20000076293945 102.60000610351562
89.4000015258789 37.80000305175781 102.00000762939453
89.4000015258789 37.80000305175781 102.60000610351562
89.4000015258789 37.20000076293945 103.20000457763672
89.4000015258789 37.20000076293945 103.80000305175781
89.4000015258789 37.80000305175781 103.20000457763672
89.4000015258789 37.80000305175781 103.80000305175781
89.4000015258789 37.20000076293945 104.4000015258789
89.4000015258789 37.20000076293945 105.00000762939453
89.4000015258789 37.80000305175781 104.4000015258789
89.4000015258789 37.80000305175781 105.00000762939453
90.0 28.80000114440918 96.0
90.0 28.80000114440918 96.60000610351562
90.0 29.400001525878906 96.0
90.0 29.400001525878906 96.60000610351562
90.60000610351562 28.80000114440918 96.0
90.60000610351562 28.80000114440918 96.60000610351562
90.60000610351562 29.400001525878906 96.0
90.60000610351562 29.400001525878906 96.60000610351562
90.0 28.80000114440918 97.20000457763672
90.0 28.80000114440918 97.80000305175781
90.0 29.400001525878906 97.20000457763672
90.0 29.400001525878906 97.80000305175781
90.60000610351562 28.80000114440918 97.20000457763672
90.60000610351562 28.80000114440918 97.80000305175781
90.60000610351562 29.400001525878906 97.20000457763672
90.60000610351562 29.400001525878906 97.80000305175781
90.0 28.80000114440918 98.4000015258789
90.0 28.80000114440918 99.00000762939453
90.0 29.400001525878906 98.4000015258789
90.0 29.400001525878906 99.00000762939453
90.60000610351562 28.80000114440918 98.4000015258789
90.60000610351562 28.80000114440918 99.00000762939453
90.60000610351562 29.400001525878906 98.4000015258789
90.60000610351562 29.400001525878906 99.00000762939453
90.0 28.80000114440918 99.60000610351562
90.0 28.80000114440918 100.20000457763672
90.0 29.400001525878906 99.60000610351562
90.0 29.400001525878906 100.20000457763672
90.60000610351562 28.80000114440918 99.60000610351562
90.60000610351562 28.80000114440918 100.20000457763672
90.60000610351562 29.400001525878906 99.60000610351562
90.60000610351562 29.400001525878906 100.20000457763672
90.0 28.80000114440918 100.80000305175781
90.0 28.80000114440918 101.4000015258789
90.0 29.400001525878906 100.80000305175781
90.0 29.400001525878906 101.4000015258789
90.60000610351562 28.80000114440918 100.80000305175781
90.60000610351562 28.80000114440918 101.4000015258789
90.60000610351562 29.400001525878906 100.80000305175781
90.60000610351562 29.400001525878906 101.4000015258789
90.0 28.80000114440918 102.00000762939453
90.0 28.80000114440918 102.60000610351562
90.0 29.400001525878906 102.00000762939453
90.0 29.400001525878906 102.60000610351562
90.60000610351562 28.80000114440918 102.00000762939453
90.60000610351562 28.80000114440918 102.60000610351562
90.60000610351562 29.400001525878906 102.00000762939453
90.60000610351562 29.400001525878906 102.60000610351562
90.0 28.80000114440918 103.20000457763672
90.0 28.80000114440918 103.80000305175781
90.0 29.400001525878906 103.20000457763672
90.0 29.400001525878906 103.80000305175781
90.60000610351562 28.80000114440918 103.20000457763672
90.60000610351562 28.80000114440918 103.80000305175781
90.60000610351562 29.400001525878906 103.20000457763672
90.60000610351562 29.400001525878906 103.80000305175781
90.0 28.80000114440918 104.4000015258789
90.0 28.80000114440918 105.00000762939453
90.0 29.400001525878906 104.4000015258789
90.0 29.400001525878906 105.00000762939453
90.60000610351562 28.80000114440918 104.4000015258789
90.60000610351562 28.80000114440918 105.00000762939453
90.60000610351562 29.400001525878906 104.4000015258789
90.60000610351562 29.400001525878906 105.00000762939453
90.0 30.000001907348633 96.0
90.0 30.000001907348633 96.60000610351562
90.0 30.600000381469727 96.0
90.0 30.600000381469727 96.60000610351562
90.60000610351562 30.000001907348633 96.0
90.60000610351562 30.000001907348633 96.60000610351562
90.60000610351562 30.600000381469727 96.0
90.60000610351562 30.600000381469727 96.60000610351562
90.0 30.000001907348633 97.20000457763672
90.0 30.000001907348633 97.80000305175781
90.0 30.600000381469727 97.20000457763672
90.0 30.600000381469727 97.80000305175781
90.60000610351562 30.000001907348633 97.20000457763672
90.60000610351562 30.000001907348633 97.80000305175781
90.60000610351562 30.600000381469727 97.20000457763672
90.60000610351562 30.600000381469727 97.80000305175781
90.0 30.000001907348633 98.4000015258789
90.0 30.000001907348633 99.00000762939453
90.0 30.600000381469727 98.4000015258789
90.0 30.600000381469727 99.00000762939453
90.60000610351562 30.000001907348633 98.4000015258789
90.60000610351562 30.000001907348633 99.00000762939453
90.60000610351562 30.600000381469727 98.4000015258789
90.60000610351562 30.600000381469727 99.00000762939453
90.0 30.000001907348633 99.60000610351562
90.0 30.000001907348633 100.20000457763672
90.0 30.600000381469727 99.60000610351562
90.0 30.600000381469727 100.20000457763672
90.60000610351562 30.000001907348633 99.60000610351562
90.60000610351562 30.000001907348633 100.20000457763672
90.60000610351562 30.600000381469727 99.60000610351562
90.60000610351562 30.600000381469727 100.20000457763672
90.0 30.000001907348633 100.80000305175781
90.0 30.000001907348633 101.4000015258789
90.0 30.600000381469727 100.80000305175781
90.0 30.600000381469727 101.4000015258789
90.60000610351562 30.000001907348633 100.80000305175781
90.60000610351562 30.000001907348633 101.4000015258789
90.60000610351562 30.600000381469727 100.80000305175781
90.60000610351562 30.600000381469727 101.4000015258789
90.0 30.000001907348633 102.00000762939453
90.0 30.000001907348633 102.60000610351562
90.0 30.600000381469727 102.00000762939453
90.0 30.600000381469727 102.60000610351562
90.60000610351562 30.000001907348633 102.00000762939453
90.60000610351562 30.000001907348633 102.60000610351562
90.60000610351562 30.600000381469727 102.00000762939453
90.60000610351562 30.600000381469727 102.60000610351562
90.0 30.000001907348633 103.20000457763672
90.0 30.000001907348633 103.80000305175781
90.0 30.600000381469727 103.20000457763672
90.0 30.600000381469727 103.80000305175781
90.60000610351562 30.000001907348633 103.20000457763672
90.60000610351562 30.000001907348633 103.80000305175781
90.60000610351562 30.600000381469727 103.20000457763672
90.60000610351562 30.600000381469727 103.80000305175781
90.0 30.000001907348633 104.4000015258789
90.0 30.000001907348633 105.00000762939453
90.0 30.600000381469727 104.4000015258789
90.0 30.600000381469727 105.00000762939453
90.60000610351562 30.000001907348633 104.4000015258789
90.60000610351562 30.000001907348633 105.00000762939453
90.60000610351562 30.600000381469727 104.4000015258789
90.60000610351562 30.600000381469727 105.00000762939453
90.0 31.200000762939453 96.0
90.0 31.200000762939453 96.60000610351562
90.0 31.80000114440918 96.0
90.0 31.80000114440918 96.60000610351562
90.60000610351562 31.200000762939453 96.0
90.60000610351562 31.200000762939453 96.60000610351562
90.60000610351562 31.80000114440918 96.0
90.60000610351562 31.80000114440918 96.60000610351562
90.0 31.200000762939453 97.20000457763672
90.0 31.200000762939453 97.80000305175781
90.0 31.80000114440918 97.20000457763672
90.0 31.80000114440918 97.80000305175781
90.60000610351562 31.200000762939453 97.20000457763672
90.60000610351562 31.200000762939453 97.80000305175781
90.60000610351562 31.80000114440918 97.20000457763672
90.60000610351562 31.80000114440918 97.80000305175781
90.0 31.200000762939453 98.4000015258789
90.0 31.200000762939453 99.00000762939453
90.0 31.80000114440918 98.4000015258789
90.0 31.80000114440918 99.00000762939453
90.60000610351562 31.200000762939453 98.4000015258789
90.60000610351562 31.200000762939453 99.00000762939453
90.60000610351562 31.80000114440918 98.4000015258789
90.60000610351562 31.80000114440918 99.00000762939453
90.0 31.200000762939453 99.60000610351562
90.0 31.200000762939453 100.20000457763672
90.0 31.80000114440918 99.60000610351562
90.0 31.80000114440918 100.20000457763672
90.60000610351562 31.200000762939453 99.60000610351562
90.60000610351562 31.200000762939453 100.20000457763672
90.60000610351562 31.80000114440918 99.60000610351562
90.60000610351562 31.80000114440918 100.20000457763672
90.0 31.200000762939453 100.80000305175781
90.0 31.200000762939453 101.4000015258789
90.0 31.80000114440918 100.80000305175781
90.0 31.80000114440918 101.4000015258789
90.60000610351562 31.200000762939453 100.80000305175781
90.60000610351562 31.200000762939453 101.4000015258789
90.60000610351562 31.80000114440918 100.80000305175781
90.60000610351562 31.80000114440918 101.4000015258789
90.0 31.200000762939453 102.00000762939453
90.0 31.200000762939453 102.60000610351562
90.0 31.80000114440918 102.00000762939453
90.0 31.80000114440918 102.60000610351562
90.60000610351562 31.200000762939453 102.00000762939453
90.60000610351562 31.200000762939453 102.60000610351562
90.60000610351562 31.80000114440918 102.00000762939453
90.60000610351562 31.80000114440918 102.60000610351562
90.0 31.200000762939453 103.20000457763672
90.0 31.200000762939453 103.80000305175781
90.0 31.80000114440918 103.20000457763672
90.0 31.80000114440918 103.80000305175781
90.60000610351562 31.200000762939453 103.20000457763672
90.60000610351562 31.200000762939453 103.80000305175781
90.60000610351562 31.80000114440918 103.20000457763672
90.60000610351562 31.80000114440918 103.80000305175781
90.0 31.200000762939453 104.4000015258789
90.0 31.200000762939453 105.00000762939453
90.0 31.80000114440918 104.4000015258789
90.0 31.80000114440918 105.00000762939453
90.60000610351562 31.200000762939453 104.4000015258789
90.60000610351562 31.200000762939453 105.00000762939453
90.60000610351562 31.80000114440918 104.4000015258789
90.60000610351562 31.80000114440918 105.00000762939453
90.0 32.400001525878906 96.0
90.0 32.400001525878906 96.60000610351562
90.0 33.0 96.0
90.0 33.0 96.60000610351562
90.60000610351562 32.400001525878906 96.0
90.60000610351562 32.400001525878906 96.60000610351562
90.60000610351562 33.0 96.0
90.60000610351562 33.0 96.60000610351562
90.0 32.400001525878906 97.20000457763672
90.0 32.400001525878906 97.80000305175781
90.0 33.0 97.20000457763672
90.0 33.0 97.80000305175781
90.60000610351562 32.400001525878906 97.20000457763672
90.60000610351562 32.400001525878906 97.80000305175781
90.60000610351562 33.0 97.20000457763672
90.60000610351562 33.0 97.80000305175781
90.0 32.400001525878906 98.4000015258789
90.0 32.400001525878906 99.00000762939453
90.0 33.0 98.4000015258789
90.0 33.0 99.00000762939453
90.60000610351562 32.400001525878906 98.4000015258789
90.60000610351562 32.400001525878906 99.00000762939453
90.60000610351562 33.0 98.4000015258789
90.60000610351562 33.0 99.00000762939453
90.0 32.400001525878906 99.60000610351562
90.0 32.400001525878906 100.20000457763672
90.0 33.0 99.60000610351562
90.0 33.0 100.20000457763672
90.60000610351562 32.400001525878906 99.60000610351562
90.60000610351562 32.400001525878906 100.20000457763672
90.60000610351562 33.0 99.60000610351562
90.60000610351562 33.0 100.20000457763672
90.0 32.400001525878906 100.80000305175781
90.0 32.400001525878906 101.4000015258789
90.0 33.0 100.80000305175781
90.0 33.0 101.4000015258789
90.60000610351562 32.400001525878906 100.80000305175781
90.60000610351562 32.400001525878906 101.4000015258789
90.60000610351562 33.0 100.80000305175781
90.60000610351562 33.0 101.4000015258789
90.0 32.400001525878906 102.00000762939453
90.0 32.400001525878906 102.60000610351562
90.0 33.0 102.00000762939453
90.0 33.0 102.60000610351562
90.60000610351562 32.400001525878906 102.00000762939453
90.60000610351562 32.400001525878906 102.60000610351562
90.60000610351562 33.0 102.00000762939453
90.60000610351562 33.0 102.60000610351562
90.0 32.400001525878906 103.20000457763672
90.0 32.400001525878906 103.80000305175781
90.0 33.0 103.20000457763672
90.0 33.0 103.80000305175781
90.60000610351562 32.400001525878906 103.20000457763672
